# .PCD v0.7 - Point Cloud Data file format
VERSION 0.7
FIELDS x y z
SIZE 4 4 4
TYPE F F F
COUNT 1 1 1
WIDTH 1488
HEIGHT 1
VIEWPOINT 0 0 0 1 0 0 0
POINTS 1488
DATA ascii
5.0704279 3.091655 -0.59920329
4.9678106 3.108362 -0.5930475
5.0046368 3.1033759 -0.5980078
5.0197368 3.1004257 -0.59494543
5.0237036 3.1053419 -0.59510887
4.9233923 3.1122913 -0.59813327
4.9545088 3.1135135 -0.59861922
4.9715843 3.1115618 -0.59767789
4.9917207 3.1119196 -0.59096056
5.1133208 3.1180599 -0.59819651
4.9126673 3.1266258 -0.59599423
4.9209776 3.1223612 -0.59943062
4.9301944 3.1259463 -0.59818947
4.9429274 3.1241541 -0.59034193
4.9757581 3.1205804 -0.59446722
4.8632507 3.1397357 -0.59861958
4.8759813 3.1341879 -0.59661573
4.9278879 3.1336844 -0.59410709
5.1392817 3.1388466 -0.59826916
4.8127923 3.1495266 -0.59384525
4.8245239 3.1440611 -0.59921682
4.8857274 3.1441746 -0.59013498
4.7682438 3.1543784 -0.59462088
4.8147273 3.1525657 -0.59781957
4.7675481 3.1647203 -0.59439945
4.7700458 3.1611559 -0.59008271
4.7215729 3.177017 -0.59293503
4.690865 3.1856809 -0.59158772
4.6287422 3.1997049 -0.59377682
4.5814672 3.2116044 -0.59573352
5.1451712 3.2128804 -0.59371978
5.1599278 3.2193077 -0.59711599
4.3841119 3.2291405 -0.59537768
4.5139241 3.2214091 -0.59603971
4.5358806 3.2219183 -0.59137559
4.4676452 3.2311296 -0.59820336
4.4739814 3.2333872 -0.59247983
4.4217701 3.2426686 -0.59134763
4.2361765 3.2589476 -0.59224457
4.3750582 3.2554312 -0.59536397
5.1654787 3.2592273 -0.59156245
4.1868277 3.2655246 -0.59026927
4.2053337 3.2607815 -0.59647059
4.2344236 3.266258 -0.59746397
4.3267493 3.2657518 -0.59846073
4.0989647 3.2781765 -0.59702832
4.1105776 3.277766 -0.59613097
4.1429038 3.2780294 -0.59737515
4.1636167 3.27529 -0.59909266
4.1938162 3.2762752 -0.59337914
4.2106762 3.2746832 -0.5927822
4.22475 3.2731869 -0.59750754
4.2789254 3.2751229 -0.5980671
4.1442237 3.2861204 -0.59263474
4.176712 3.2810035 -0.59138
5.1786356 3.3158994 -0.592794
5.1784158 3.3284895 -0.59718049
4.1129742 3.3647265 -0.59774214
5.2014747 3.4412019 -0.59138477
5.171927 3.5172641 -0.59900188
5.1022024 3.5272472 -0.59954453
5.1158834 3.5215075 -0.59404194
4.9055867 3.5567336 -0.59079093
4.1716924 3.6067381 -0.59936893
4.1849294 3.6454291 -0.59398955
4.4752483 3.6414909 -0.59860712
4.2211723 3.6602144 -0.59539402
4.3549476 3.6648514 -0.59846359
4.2018042 3.6774535 -0.59061998
5.2852969 3.7631402 -0.5953294
5.2452788 3.7788901 -0.59436852
5.2792244 3.7774181 -0.59900481
5.2430773 3.7889581 -0.59896642
5.2121606 3.7945082 -0.59795666
5.164978 3.8034599 -0.59908944
5.1967897 3.8211567 -0.59815711
5.1341133 3.8574862 -0.59414262
5.1615548 3.853723 -0.59520262
5.069911 3.8853569 -0.59479111
5.0720267 3.8871009 -0.59897298
5.0825987 3.8810883 -0.59470755
5.069387 3.8970783 -0.59218264
5.077086 3.9056449 -0.59599352
5.0355759 3.9295924 -0.59169364
5.0180345 3.9330075 -0.59311485
5.0075126 3.9414902 -0.59948796
4.9654179 3.9549203 -0.59877002
4.9774857 3.9504514 -0.59666061
4.9941497 3.9537532 -0.5949232
4.9688234 3.9621911 -0.59912699
4.9506531 3.9814153 -0.5982464
4.9218926 3.9903724 -0.59485227
4.8977108 4.0076342 -0.5910008
4.9066944 4.0011067 -0.59964341
4.8329229 4.0304866 -0.59805101
4.8234348 4.0550995 -0.59702635
4.7871962 4.0714774 -0.59570521
4.7750988 4.0892267 -0.59020156
4.7482681 4.0938134 -0.59820354
4.7238989 4.1080461 -0.598903
4.7345214 4.1140404 -0.59340751
4.6940842 4.1347742 -0.59409302
4.7216325 4.138432 -0.59259647
4.6630678 4.148098 -0.59155691
4.6035528 4.1623349 -0.59777099
4.6477461 4.1603112 -0.59705788
4.6075101 4.1836748 -0.59688425
4.5791607 4.1989145 -0.59840143
4.5803776 4.2377148 -0.59948999
4.4583654 4.2895603 -0.59968829
4.3711047 4.3270454 -0.59730625
4.3828144 4.3474121 -0.591775
4.2817087 4.3506393 -0.59502041
4.3492651 4.3708811 -0.59153777
4.2369795 4.3886456 -0.59089947
4.2720118 4.4130745 -0.59599864
2.1396811 -1.5225316 -0.58146691
1.888891 -0.65511781 -0.58256954
1.8849052 -0.64696264 -0.58349711
2.0341032 -0.64763063 -0.58818418
1.8548901 -0.63147038 -0.58737063
1.8934679 -0.63308591 -0.586052
1.9484093 -0.63700676 -0.58733225
1.8960427 -0.62187469 -0.58827841
1.8696384 -0.61160272 -0.58090353
1.941539 -0.61230284 -0.58610618
1.9117175 -0.59973449 -0.58855247
1.8161675 -0.58766723 -0.58413541
1.8431305 -0.5625608 -0.58233768
1.8679492 -0.54750669 -0.58380705
1.879063 -0.54212075 -0.58566147
1.8587345 -0.53027737 -0.58117706
1.8601605 -0.53223401 -0.58107263
1.8546501 -0.52760577 -0.5869661
1.908694 -0.52463067 -0.58372235
1.8964207 -0.50750875 -0.58564717
1.8901956 -0.49598786 -0.58131832
1.8835032 -0.48998129 -0.58642012
1.9039551 -0.46855721 -0.5837968
1.9177316 -0.46841544 -0.58291966
1.933769 -0.44968259 -0.58671457
1.9443243 -0.44649413 -0.58926809
1.9658037 -0.44009471 -0.58519316
1.9613078 -0.43948704 -0.58515775
1.9757738 -0.4332332 -0.58488292
2.086447 -0.437868 -0.58591408
3.0373294 -0.25936705 -0.58064914
3.1323347 -0.25895742 -0.58580822
2.9225297 -0.23044392 -0.58846897
2.9919209 -0.23129238 -0.58176959
3.011102 -0.23111205 -0.58728516
3.1107528 -0.22921604 -0.58852714
3.2000341 -0.22937101 -0.58428973
2.8808925 -0.21316576 -0.58323216
2.8827667 -0.19100375 -0.58127075
3.2005749 -0.1909668 -0.58598977
2.8737023 -0.1861096 -0.58715028
2.8914039 -0.18408836 -0.582012
2.9366062 -0.18040065 -0.58960015
3.1167917 -0.18574157 -0.58509696
2.8769112 -0.15864614 -0.58357257
2.917027 -0.15091459 -0.58715999
2.8592005 -0.14476921 -0.58368826
2.8782878 -0.14895128 -0.5812369
3.1871884 -0.14700665 -0.58479112
2.8680756 -0.13670118 -0.58486372
2.9636521 -0.11454231 -0.58277786
2.9032619 -0.10425135 -0.58375919
2.8275318 -0.099326372 -0.58925414
2.9739368 -0.093572915 -0.58331501
2.8844466 -0.078168876 -0.58488566
3.0692558 -0.078988619 -0.58843684
2.8382308 -0.060911205 -0.58778501
2.8405602 -0.064591028 -0.58993083
3.0860119 -0.069518752 -0.58951479
3.080375 -0.041859474 -0.58465791
3.1467752 -0.047672905 -0.58266497
2.8313429 -0.036942285 -0.58930367
2.8508649 -0.038632486 -0.58374983
2.8939345 -0.03077629 -0.58671272
2.8016491 -0.02385197 -0.58829153
2.8354018 -0.025724195 -0.58990896
2.8731978 -0.023722289 -0.58354563
2.9116755 -0.018783733 -0.58893937
2.9376934 -0.011694799 -0.5855906
3.0051527 -0.014545256 -0.58998871
2.7803502 -0.0079030469 -0.58283401
3.146554 -0.0052148416 -0.5892241
2.8410575 0.0033398056 -0.58158916
2.8749404 0.0071744621 -0.58520067
2.970309 0.0013100996 -0.5816806
2.8551087 0.012799419 -0.58271474
2.8392477 0.025682343 -0.58327115
2.863148 0.023451379 -0.58784252
2.8705866 0.037179232 -0.58913636
2.9121521 0.035771158 -0.5842675
2.9301875 0.032370273 -0.58520401
2.8450043 0.044376623 -0.58106899
2.889667 0.048095636 -0.5860123
2.9013395 0.040960755 -0.58211219
2.941349 0.048570234 -0.58963901
2.9228172 0.050612777 -0.58791387
3.0304019 0.055874214 -0.58979535
2.9244478 0.062386822 -0.58032686
2.9635513 0.065112919 -0.58461213
3.0402029 0.063100442 -0.5852676
3.0553761 0.064166576 -0.58522171
3.0691621 0.060896531 -0.58357817
2.9112208 0.072000146 -0.58251119
2.9621646 0.078055471 -0.58155406
2.9964015 0.1073006 -0.58952117
5.3944726 0.72169518 -0.58145666
5.3582611 0.75060666 -0.58612007
5.3270755 0.77909762 -0.58436835
5.3223128 0.79041183 -0.58263224
5.3173618 0.82751507 -0.58027977
5.333477 0.84224474 -0.58844692
5.3226733 0.85103589 -0.58378989
5.3406925 0.87385172 -0.58109468
5.3846531 0.92996925 -0.58647639
5.4028764 0.93073928 -0.58941782
5.4001975 0.94409901 -0.5896135
5.5220971 0.9482398 -0.58607745
5.5007458 0.96373254 -0.58104038
5.3642311 1.0383375 -0.58436906
5.3642731 1.055299 -0.58821356
5.3770514 1.1043291 -0.58019364
5.3737612 1.110813 -0.58277977
5.398252 1.1371288 -0.58784491
5.3939357 1.1405982 -0.58275801
5.4052114 1.155139 -0.58448523
5.414279 1.170603 -0.58750147
5.4599061 1.2073485 -0.58974516
5.4834027 1.2256173 -0.58184922
5.5373716 1.2402714 -0.58872509
5.6772709 1.2557497 -0.58567125
3.1787038 1.3989128 -0.58130682
3.2403316 1.401621 -0.5817911
3.1962311 1.4144493 -0.58687317
3.2071753 1.4198672 -0.58420849
3.2149334 1.422284 -0.58245915
3.2272806 1.4301804 -0.58791304
3.2793491 1.4330156 -0.58058703
3.3223364 1.4355381 -0.58145201
3.1815839 1.4499723 -0.58100682
3.2469838 1.4445181 -0.58299053
3.2074478 1.4575028 -0.58404136
3.2132261 1.4676282 -0.58904469
3.2100484 1.4769081 -0.58137053
3.334357 1.4750859 -0.58671403
3.1786129 1.4825834 -0.58893877
3.3060875 1.4996096 -0.58748186
3.177063 1.5081569 -0.5888474
3.2956798 1.5055832 -0.5818243
3.141731 1.5154315 -0.58284235
3.3039865 1.5371457 -0.58558011
3.1215789 1.5437235 -0.5872345
3.2932622 1.5419047 -0.58116722
3.0938883 1.5614296 -0.58457541
3.259613 1.5608103 -0.58954829
3.051923 1.5920577 -0.58840293
3.086936 1.5921878 -0.58346379
3.1061783 1.5980173 -0.58324337
3.0711601 1.606759 -0.58114445
3.1940331 1.6079361 -0.58762062
2.902678 1.6244111 -0.5853259
3.0833044 1.629855 -0.58170003
2.8537731 1.6396091 -0.58715308
2.8753102 1.6347245 -0.58840823
2.8844061 1.639834 -0.58531302
3.1824167 1.633105 -0.58549672
2.8412743 1.6475366 -0.58840865
2.8762641 1.6482008 -0.58095306
3.0366011 1.6412028 -0.58405292
2.8493547 1.6587185 -0.58117163
2.7866604 1.6648474 -0.5849449
2.7159605 1.6736701 -0.58214343
2.7663417 1.6780107 -0.58989084
2.9603858 1.6781948 -0.58880126
2.9848013 1.6755633 -0.58384544
3.0392606 1.6770881 -0.58435863
2.9531922 1.6814148 -0.58281565
2.6187766 1.7085966 -0.58953065
2.5691917 1.7282554 -0.58044893
2.5747178 1.7260383 -0.58090663
2.9173577 1.7333819 -0.58541423
3.126395 1.7355367 -0.5809508
3.1232738 1.7447982 -0.58911902
3.0419796 1.8068644 -0.58216816
4.9564266 2.7084963 -0.58765811
5.0161924 2.7095268 -0.58673948
4.9159746 2.7183344 -0.58843285
4.9843016 2.7245619 -0.58782053
5.0092602 2.7253194 -0.5841229
5.0243378 2.7273529 -0.58736825
4.8723078 2.7374811 -0.58615637
4.9053946 2.7391903 -0.58863485
4.9140973 2.7312145 -0.58878046
4.9264717 2.7378671 -0.58646929
4.9341536 2.7375131 -0.58846295
4.9550972 2.7357059 -0.58114773
4.9698973 2.7304289 -0.58044517
4.9750533 2.737088 -0.58718228
4.9983845 2.7396197 -0.58540404
5.0117574 2.7392879 -0.58701193
5.026854 2.7369385 -0.58929211
4.8403506 2.7467029 -0.58800501
4.9135499 2.7489007 -0.58625501
4.9593482 2.7445741 -0.587547
4.9726562 2.7443719 -0.58651042
5.0051022 2.7412906 -0.58586919
5.0123057 2.7425787 -0.58477229
5.0250688 2.7427249 -0.58518475
4.8660975 2.7596796 -0.58696389
4.8727403 2.7590921 -0.5899874
4.9171796 2.7512918 -0.58926398
4.9245872 2.753181 -0.58901733
4.9316907 2.7516396 -0.58271003
4.9474711 2.7568829 -0.58757186
4.9514093 2.7559485 -0.58802229
4.9764233 2.7533216 -0.58516318
4.9811707 2.7545331 -0.58715737
4.9955335 2.7565601 -0.58614951
5.0240917 2.7513447 -0.58919775
4.864656 2.7644587 -0.58940917
4.8912716 2.7687869 -0.58350289
4.9124131 2.763849 -0.58846307
4.9339514 2.7609282 -0.58573931
4.9635444 2.76652 -0.58851659
5.008069 2.7669427 -0.58753914
5.0113597 2.7659471 -0.58446854
4.8193769 2.7743633 -0.58960986
4.8606825 2.7727542 -0.58955699
4.8798947 2.7743251 -0.58895159
4.9043365 2.7722096 -0.58984238
4.9298406 2.7706153 -0.58766448
4.9338427 2.7754664 -0.58835381
4.9478693 2.7722888 -0.58795369
4.9877272 2.7745881 -0.58741999
5.016377 2.777472 -0.58490109
4.7791338 2.7805052 -0.58926982
4.8890705 2.7887454 -0.58989471
4.8921437 2.7878051 -0.58989853
4.9082522 2.7824287 -0.58874482
4.9244542 2.7854526 -0.58855706
4.9608059 2.7826247 -0.58883744
4.9778838 2.7825425 -0.5873391
4.9852457 2.7848873 -0.58574897
4.9911847 2.7832105 -0.58808267
5.0052829 2.7851446 -0.58840561
5.032115 2.780427 -0.58691412
4.8422327 2.793699 -0.58437324
4.9404812 2.7989285 -0.58870733
4.9724417 2.7940722 -0.5864231
4.8881698 2.804456 -0.58943564
4.9464025 2.8056221 -0.58946747
4.9577475 2.8002903 -0.58974278
4.9876471 2.8027282 -0.58612645
5.0095868 2.8058236 -0.58694506
5.0180273 2.8017232 -0.58855295
5.0213799 2.8052695 -0.58777529
5.0313482 2.8051124 -0.58942091
4.9270344 2.8144093 -0.58956891
4.9551215 2.8140352 -0.58920312
4.9812388 2.8120925 -0.58875245
4.9971814 2.8173988 -0.58777297
5.0350776 2.8172662 -0.58917344
4.9875135 2.8225255 -0.58487231
5.0050874 2.8211617 -0.58883393
5.0211544 2.8269348 -0.58863306
4.9673858 2.8326936 -0.58834404
5.0181046 2.848809 -0.58839256
5.0289173 2.8426666 -0.58735406
5.0414715 2.8426654 -0.58708084
4.9487391 2.8542926 -0.58989656
4.9869242 2.8578045 -0.58954185
5.0072198 2.8570192 -0.5871492
5.0253792 2.850811 -0.58873606
5.0480161 2.8500054 -0.58793384
4.9894767 2.8675439 -0.58979672
4.9912958 2.8877256 -0.58962411
5.0365791 2.8819242 -0.58906996
5.0892682 3.0866258 -0.58612126
5.1019163 3.0871964 -0.58013183
5.0399656 3.0999854 -0.58675832
5.0442996 3.0963454 -0.58969408
5.0530891 3.0959671 -0.58515984
5.0742526 3.0936847 -0.58450449
5.1026158 3.0916483 -0.58882898
5.004509 3.1088016 -0.58299863
5.0357666 3.1086979 -0.58011323
5.1143684 3.1094022 -0.58632088
5.1008387 3.1175704 -0.58217061
4.9164572 3.1296339 -0.58267349
4.9205813 3.1247101 -0.58844632
4.9571123 3.1200025 -0.58344853
4.8732667 3.139477 -0.58517969
4.8859415 3.1334336 -0.58347756
4.8934002 3.1349883 -0.58773315
4.8499789 3.1450539 -0.58394277
4.8564491 3.1413662 -0.58741319
4.7850733 3.1555202 -0.58778787
4.8044491 3.155035 -0.58200407
4.825737 3.1534386 -0.58155048
4.8392153 3.1501207 -0.58708626
4.7332106 3.1684701 -0.58795804
4.7408218 3.162771 -0.58606005
4.7735362 3.1616709 -0.58381945
4.6769242 3.1799085 -0.58573455
4.6944103 3.175653 -0.58438301
4.7153273 3.1767261 -0.58297354
4.7249374 3.1719503 -0.58681792
4.6270223 3.1887007 -0.5870043
4.6443543 3.1833684 -0.58061337
4.6544375 3.1872959 -0.58578014
4.6646972 3.1890204 -0.58072525
4.6748934 3.1870413 -0.58474112
5.1394577 3.1838429 -0.58020324
4.5783625 3.1986818 -0.58687252
4.5953779 3.1912858 -0.58092314
4.6076922 3.1950934 -0.58014905
4.6108193 3.197314 -0.58900464
4.529294 3.2068143 -0.58211255
4.5461464 3.2010155 -0.58934206
4.4790072 3.2150915 -0.58145434
4.4974442 3.2111266 -0.58899891
4.5530896 3.214329 -0.58617753
4.5641036 3.2112513 -0.58932382
4.4306488 3.2240942 -0.58559632
4.4496427 3.223079 -0.58514762
4.5134902 3.225987 -0.58558512
4.5218973 3.2216461 -0.58987677
4.3812857 3.232816 -0.58672833
4.3999238 3.2356572 -0.58138233
4.451601 3.239933 -0.58455205
4.4890251 3.2323267 -0.58772951
4.2792959 3.2491567 -0.58616602
4.3236561 3.2453415 -0.58723992
4.3338885 3.2402737 -0.58877659
4.3704886 3.2451422 -0.58488619
4.4198775 3.2463667 -0.5844835
5.1552658 3.2403238 -0.58863574
4.2080364 3.2581995 -0.58709401
4.2402048 3.2539804 -0.5889464
4.2830601 3.2520046 -0.58547533
4.3209782 3.256135 -0.58351642
4.3757062 3.2575862 -0.58393043
4.1639481 3.2648537 -0.58978337
4.191185 3.2682338 -0.58707398
4.238193 3.2677929 -0.58030009
4.2596192 3.2607579 -0.58650452
4.140841 3.2780371 -0.58801901
4.1864505 3.2762468 -0.58499813
4.2324033 3.2721255 -0.58931929
4.1415806 3.2828062 -0.5829491
4.1315498 3.4069729 -0.58966273
4.1617265 3.4555879 -0.58138412
4.1921024 3.4537845 -0.58033329
4.1627536 3.4697461 -0.58681053
4.123208 3.4707317 -0.58075804
4.2165337 3.4770334 -0.5852741
4.1733484 3.499779 -0.58349675
4.1468487 3.526464 -0.58051437
4.1326699 3.5320876 -0.58526111
4.1587296 3.5306027 -0.58029091
4.2123871 3.5351079 -0.58068579
4.1690564 3.5434322 -0.58267206
4.1884108 3.5428851 -0.5805409
4.215713 3.5590689 -0.58124506
4.2231627 3.5581698 -0.58093262
4.1679893 3.565639 -0.58369696
4.1393938 3.5740767 -0.58651358
4.1598086 3.5738401 -0.58135366
4.172998 3.5721838 -0.5816493
4.1937609 3.5741277 -0.5880875
4.2026734 3.5726113 -0.58644313
4.1953115 3.5836082 -0.58277738
4.3111515 3.5800531 -0.58299148
4.3359842 3.5863194 -0.58023185
4.7405014 3.5813882 -0.58267605
4.1821489 3.595911 -0.58642548
4.1949706 3.5901015 -0.58181971
4.236083 3.5966778 -0.5812456
4.2503295 3.5954294 -0.58033139
4.290987 3.5972414 -0.58129781
4.2069988 3.607583 -0.58388186
4.1828179 3.617183 -0.58030653
4.2059951 3.6166954 -0.58308995
4.2152939 3.6129558 -0.58008689
4.2494068 3.6160402 -0.58234465
4.5361133 3.6104102 -0.58219397
4.5906196 3.612715 -0.58619392
4.1758442 3.6295264 -0.58411384
4.2137399 3.6281242 -0.58585924
4.2500324 3.6299398 -0.58004802
4.3036051 3.6271279 -0.58076811
4.2575302 3.6366682 -0.58147144
4.2656126 3.6369119 -0.58033097
4.2762642 3.6309173 -0.58189315
4.3048859 3.631789 -0.58224273
4.1879354 3.6466804 -0.58379877
4.207922 3.6476159 -0.58427066
4.2148447 3.6426382 -0.58239245
4.2444639 3.6411929 -0.58130848
4.2582388 3.6446114 -0.5813604
4.3240829 3.6429014 -0.58210516
4.2230792 3.6536922 -0.58142477
4.2748966 3.6580398 -0.5826351
4.1947284 3.6606004 -0.58582264
4.2193618 3.6635725 -0.58878213
4.2229013 3.664767 -0.58472782
4.1928539 3.6715889 -0.58898515
4.2270722 3.6705134 -0.58457911
5.2194991 3.8057404 -0.58081132
5.2299547 3.8021472 -0.58206606
5.198657 3.8170662 -0.58206183
5.1771817 3.8266113 -0.58466387
5.1921401 3.821691 -0.58509344
5.1493468 3.8482449 -0.58515352
5.1568551 3.8419638 -0.58388424
5.1183734 3.8691158 -0.58890998
5.1067457 3.8700235 -0.58607167
5.1331325 3.8783076 -0.58071172
5.0615144 3.9184153 -0.58111
4.9835591 3.956985 -0.58589345
4.9640093 3.9697652 -0.58691943
4.9472857 3.9801006 -0.58611578
4.886312 4.0102611 -0.58182085
4.8438826 4.0205531 -0.5855931
4.8564143 4.0296016 -0.58226949
4.8661585 4.0380301 -0.5847863
4.8104372 4.056241 -0.58547783
4.8195772 4.0638447 -0.58444524
4.76723 4.0808778 -0.5897668
5.019732 4.0954294 -0.58058387
4.734024 4.117898 -0.58536023
4.697957 4.1229997 -0.58011729
4.5633726 4.212265 -0.58627099
4.403275 4.3127675 -0.58712268
4.4588089 4.3519373 -0.58173013
4.2872872 4.364378 -0.58481604
4.4444981 4.3744092 -0.58036369
4.1657157 4.4302511 -0.58024704
2.0124679 -0.65053284 -0.57993555
1.9871007 -0.64083904 -0.57453054
2.0096736 -0.64403754 -0.5748744
1.8731326 -0.63271755 -0.57124943
1.8848058 -0.63480324 -0.57541615
1.9000607 -0.63436407 -0.57867515
1.9046355 -0.62445623 -0.57429975
1.872458 -0.61703324 -0.57533926
1.8848625 -0.61089897 -0.5755471
1.8378797 -0.60242754 -0.57251513
1.8783418 -0.60296297 -0.57109165
1.8391066 -0.59475374 -0.57230973
1.8869356 -0.59839511 -0.5706076
1.994895 -0.59812993 -0.57875896
1.863937 -0.58954728 -0.57267565
1.8978831 -0.5879336 -0.57088441
1.8335805 -0.57496476 -0.57681143
1.8386916 -0.5614723 -0.57252461
1.8908612 -0.53695512 -0.57582426
1.8619192 -0.52415776 -0.57760864
1.8810607 -0.50381273 -0.57624763
1.8858925 -0.49945247 -0.5768643
1.9248948 -0.49122456 -0.57383585
1.9389622 -0.45589358 -0.57609743
1.9495137 -0.45559978 -0.57380348
1.9669807 -0.43761277 -0.575073
2.0242248 -0.43325219 -0.57360107
2.0402229 -0.42093882 -0.57659948
3.164017 -0.29694852 -0.57382184
3.085779 -0.26181278 -0.57577562
3.2037368 -0.26242349 -0.57613564
3.1931248 -0.2421893 -0.57333106
2.9215195 -0.23581843 -0.57841164
2.9309912 -0.23238844 -0.57192165
3.0991049 -0.23428513 -0.57053387
2.8854985 -0.22212078 -0.57823312
2.9160004 -0.21623008 -0.57033479
2.9847715 -0.21677718 -0.57590574
3.0539005 -0.21521558 -0.57074338
3.1824284 -0.21313335 -0.57280225
3.1965592 -0.21677884 -0.57634383
2.8938756 -0.20216025 -0.57517278
3.0392394 -0.20770247 -0.57066429
3.0053949 -0.19178048 -0.57140809
2.9697475 -0.18064292 -0.57122421
3.2020607 -0.18865305 -0.578843
2.9013369 -0.17727773 -0.57045943
2.9127226 -0.17028166 -0.57573766
3.0220542 -0.15135923 -0.57028693
2.910372 -0.13096437 -0.57845753
2.9476163 -0.12782981 -0.57272965
2.9485617 -0.11019389 -0.57208782
3.1133957 -0.1162044 -0.57482159
2.8649757 -0.086187921 -0.57456803
2.9165759 -0.081860185 -0.57748044
3.0080426 -0.08519613 -0.57787734
2.876261 -0.077869125 -0.57042545
2.9360273 -0.071555078 -0.57614517
3.0371857 -0.071750119 -0.579741
2.8586524 -0.055023029 -0.57869214
2.935658 -0.059553619 -0.57301903
3.0820456 -0.055739213 -0.57885212
2.8400564 -0.049135376 -0.57240188
2.8562381 -0.0419937 -0.57687593
2.8731105 -0.0491497 -0.57271361
2.9042161 -0.043894321 -0.57901627
3.144244 -0.043119892 -0.57908177
2.8574126 -0.034304034 -0.57891226
2.9346359 -0.037592288 -0.57285631
2.9678698 -0.035301041 -0.57140654
3.1590571 -0.033714905 -0.57874215
2.8487387 -0.028012287 -0.57843018
2.9199677 -0.022213295 -0.57645935
2.9733591 -0.022274464 -0.57079566
2.8054817 -0.018243544 -0.57670647
2.8554459 -0.015472773 -0.57014865
2.8619576 -0.019890469 -0.57333386
2.9218824 -0.013467738 -0.57645959
2.8518519 -0.0063855969 -0.57731348
2.8853447 -0.0060447957 -0.57011628
2.8521907 0.0063944743 -0.57866293
3.1481702 0.0019193179 -0.57959557
2.8441715 0.013492545 -0.57418168
2.8788373 0.016672427 -0.57087684
2.8989666 0.010450582 -0.57377309
2.9237766 0.017107144 -0.57844007
2.9461832 0.015042573 -0.57706285
2.9563723 0.017192014 -0.57372749
2.8727241 0.021466399 -0.57050997
2.9034176 0.024499025 -0.57902253
2.9559231 0.022370042 -0.57190239
2.9358695 0.039300103 -0.57199627
2.9841037 0.046137966 -0.57170087
2.9582264 0.051843688 -0.57922429
2.9636459 0.058717303 -0.57375944
2.9506562 0.072033033 -0.57026869
2.9909468 0.077823073 -0.57667565
3.0819192 0.072100893 -0.5794211
3.0970533 0.077702455 -0.57461673
2.943197 0.094615623 -0.57587194
3.0449386 0.093530245 -0.57020384
5.5407362 0.61839592 -0.57914633
5.470624 0.67599535 -0.57950836
5.4619102 0.68187648 -0.57955354
5.4446945 0.69417191 -0.57357532
5.4353657 0.70585096 -0.57600921
5.4440193 0.70181036 -0.57630748
5.3726201 0.74518597 -0.57302469
5.3119392 0.8044343 -0.57521838
5.3108459 0.8296088 -0.57621557
5.3733544 0.90421724 -0.57904232
5.3535604 1.055676 -0.57907414
5.3478022 1.0730001 -0.57133722
5.4012098 1.1718345 -0.57087088
5.4186645 1.1737629 -0.57954651
5.4165883 1.1854631 -0.57622182
5.4462919 1.2018708 -0.57667935
3.17208 1.3917819 -0.57267898
3.215559 1.4116277 -0.57503539
3.2810817 1.4172902 -0.5773617
3.2377234 1.4341108 -0.57367212
3.2456074 1.4528641 -0.57083005
3.2561913 1.4513046 -0.57810676
3.2235942 1.4665897 -0.5798021
3.2850294 1.4663713 -0.57413018
3.2911522 1.4643158 -0.57084221
3.3490212 1.4683685 -0.57043213
3.2705572 1.475764 -0.57863843
3.3035524 1.5108713 -0.57311207
3.3160622 1.5186272 -0.57127666
3.3209951 1.5297658 -0.57164961
3.1280997 1.5303937 -0.57557505
3.1246471 1.5533597 -0.57275409
3.2017479 1.5590385 -0.57287085
3.1327443 1.5656908 -0.57196671
3.1008141 1.5714093 -0.57883966
3.2297342 1.5974588 -0.5750221
3.2217691 1.6179969 -0.5785774
2.8141086 1.6651281 -0.57884699
3.0687163 1.6682543 -0.57995093
2.9944534 1.6781598 -0.57469243
2.6799159 1.68785 -0.57208675
2.7025585 1.6849463 -0.57101405
2.9949977 1.6975548 -0.57864654
2.6444361 1.7019993 -0.57962114
2.9547117 1.7009431 -0.57700461
2.601042 1.7186663 -0.57885158
2.5817199 1.7228802 -0.5745334
3.1012518 1.767176 -0.5709188
5.8535748 1.7653874 -0.57005984
2.6070759 1.7838862 -0.57861644
5.0563698 3.0942142 -0.57305187
5.0640182 3.0968709 -0.57669479
5.0942769 3.0944293 -0.5757798
5.0208006 3.1062322 -0.57781512
5.0380397 3.1043024 -0.57047242
5.0464978 3.1039689 -0.5710395
5.060801 3.1091223 -0.57240754
5.101562 3.1055272 -0.57298112
4.9738231 3.11922 -0.5795477
5.0165377 3.1110642 -0.57222497
4.9434247 3.1275301 -0.57782036
4.9622383 3.1220748 -0.57208854
4.9735675 3.1274667 -0.57672459
4.9938917 3.1221058 -0.57521021
5.0153704 3.1210637 -0.57323897
4.9167099 3.1340213 -0.57775605
5.1184249 3.1302259 -0.57897741
4.866065 3.1423533 -0.57361239
4.8710766 3.1443636 -0.57694441
4.8055258 3.1533759 -0.57685459
4.8169389 3.1542828 -0.57446939
4.823226 3.1503983 -0.57194757
5.1392317 3.1595433 -0.57897121
4.7571268 3.1650178 -0.57800376
4.7653894 3.1647279 -0.57862604
4.773447 3.1605091 -0.57172096
4.7060595 3.177871 -0.57377934
4.7222486 3.171952 -0.57960606
4.6587162 3.1871917 -0.57728899
4.6731343 3.1862044 -0.57808465
4.5810375 3.1962059 -0.57207704
4.6130552 3.1995277 -0.57814687
4.626276 3.198698 -0.57409328
4.635232 3.1936936 -0.57209963
4.5322671 3.205198 -0.5736497
4.6062527 3.2084599 -0.57101011
5.1447058 3.2071831 -0.57987946
4.483521 3.217279 -0.57366443
5.1501274 3.2121336 -0.57165796
4.4313245 3.2265306 -0.57680768
4.3862123 3.2335868 -0.57348245
4.4499073 3.2320445 -0.57269847
4.4647169 3.2310174 -0.57320493
4.3472381 3.2438765 -0.57925075
4.4662948 3.2411928 -0.57626742
4.2488337 3.2532513 -0.57883787
4.284894 3.2541695 -0.57638299
4.3276024 3.2531812 -0.57846987
4.3495197 3.2550533 -0.57289588
4.3551359 3.2524815 -0.57390714
4.3760633 3.2545991 -0.57712901
4.1957579 3.2655611 -0.57298189
4.3103242 3.2611997 -0.57684964
4.1479921 3.2764208 -0.57416946
4.2614722 3.2724636 -0.57265466
4.0708122 3.2857018 -0.57953221
4.1076617 3.2840848 -0.5774799
4.1348081 3.288676 -0.57206571
4.2188454 3.2888689 -0.57148421
4.2252455 3.2812572 -0.57041508
4.0967607 3.2920344 -0.57423109
4.169178 3.2983956 -0.57385355
4.1236391 3.3072636 -0.57790679
4.0688744 3.3258862 -0.57220513
4.0704432 3.3510239 -0.57593077
4.106915 3.3545282 -0.57357758
4.1405773 3.3533671 -0.57113218
5.1719098 3.3542759 -0.57867432
4.1311255 3.3619492 -0.57133722
4.1582518 3.3691893 -0.57027435
4.1354752 3.3892102 -0.57351518
4.1720581 3.3888659 -0.57055664
4.2010164 3.3874424 -0.57223231
4.1434522 3.3985047 -0.57224393
4.1659842 3.3979073 -0.57368559
4.2268624 3.3964186 -0.57075888
4.1131406 3.4010105 -0.573735
4.1818328 3.403722 -0.57313687
4.1585603 3.413301 -0.57078546
4.301487 3.4126256 -0.57022685
4.1330781 3.4202833 -0.57430071
4.1537151 3.4279263 -0.57442838
4.1812959 3.4278703 -0.57266057
4.2032843 3.4237318 -0.57005256
4.2344694 3.4272351 -0.57085419
4.1180596 3.4366376 -0.57944638
4.1490049 3.4385977 -0.57143539
4.2001929 3.4323752 -0.57176656
4.1528535 3.4473569 -0.5741297
4.1657028 3.441848 -0.57197714
4.2074265 3.4451935 -0.5723846
4.2249284 3.4440358 -0.57875186
4.2039433 3.4594839 -0.57446188
4.2391386 3.456563 -0.5734902
4.2456255 3.4515607 -0.5703727
4.2543993 3.4522541 -0.57106519
4.2952294 3.4570403 -0.57020849
4.1543388 3.4671285 -0.57544839
4.1946869 3.4651036 -0.5720228
4.2375412 3.4626603 -0.57260853
4.2431378 3.4669991 -0.57269716
4.2616634 3.4605401 -0.57026452
4.362833 3.4620678 -0.57079691
4.1302333 3.4700193 -0.57791954
4.1727238 3.4773977 -0.57540917
4.2139282 3.4724703 -0.57203674
4.2433453 3.4707198 -0.57284588
4.3198843 3.4755313 -0.57155728
4.1664729 3.4839568 -0.57554901
4.2000623 3.483144 -0.57615
4.2162399 3.4856391 -0.5717926
4.2551279 3.4800951 -0.57215399
4.2710238 3.4849093 -0.57333255
4.2992597 3.4803336 -0.57045174
4.3081613 3.4864781 -0.57250953
4.354023 3.4896517 -0.57041007
4.1393795 3.4955025 -0.57521445
4.1668296 3.4995005 -0.57273149
4.2085752 3.4969983 -0.5754022
4.2459621 3.4975781 -0.5717212
4.2564926 3.4931409 -0.57415736
4.2682767 3.4987469 -0.5713774
4.2984152 3.4921293 -0.57014769
4.1278911 3.5025587 -0.57751071
4.1718059 3.5094938 -0.57947111
4.1999345 3.5082872 -0.57463461
4.2234669 3.5048718 -0.57345009
4.2560368 3.503978 -0.57132363
4.3308244 3.5070684 -0.57050127
4.4155912 3.5078819 -0.5701589
4.1627049 3.5110767 -0.57693297
4.1776829 3.5158944 -0.57722718
4.2230229 3.5118551 -0.5727703
4.261487 3.51542 -0.57328278
4.2727089 3.5195487 -0.57355005
4.2980833 3.5127175 -0.57266867
4.3093491 3.5106227 -0.57313383
4.3122978 3.5150933 -0.57232815
4.3227825 3.5166578 -0.57128483
4.3553166 3.5193734 -0.57063729
4.3644967 3.5130923 -0.57204521
4.3717785 3.5132554 -0.57391626
4.2141204 3.5266621 -0.5757876
4.2299118 3.5213296 -0.57347661
4.2472439 3.52668 -0.57545203
4.2615304 3.5212669 -0.5749982
4.272789 3.5270095 -0.57268155
4.2845397 3.5250859 -0.57364941
4.3048272 3.5261226 -0.57115179
4.3289847 3.5293214 -0.57413524
4.3584838 3.5292311 -0.5702368
4.3923368 3.5299489 -0.57061321
4.411252 3.5240135 -0.57013077
4.4260859 3.5279579 -0.57038033
4.1818638 3.5397923 -0.57926428
4.2151585 3.5356827 -0.57453179
4.2263479 3.5364342 -0.57504153
4.257905 3.5307848 -0.57311082
4.2684388 3.5321314 -0.57554901
4.3647618 3.5337715 -0.57182497
4.3886905 3.5398405 -0.57115287
4.1866117 3.5422671 -0.57761842
4.2237062 3.5464268 -0.57813507
4.2381492 3.5414755 -0.57557005
4.2642694 3.5478306 -0.57543856
4.2720122 3.5464022 -0.57739121
4.300036 3.5435369 -0.5716458
4.3113756 3.5448096 -0.57486057
4.3249464 3.5408516 -0.57296395
4.3452601 3.5439503 -0.57107937
4.3560967 3.5486956 -0.57259226
4.3786631 3.5425787 -0.5720098
4.4062567 3.5429757 -0.57074279
4.1879926 3.554019 -0.57816732
4.1901684 3.5585246 -0.57978463
4.2759275 3.5558977 -0.57623887
4.3063402 3.556293 -0.57513803
4.3311892 3.5591116 -0.57456768
4.3420763 3.5573747 -0.5738436
4.3804278 3.5549943 -0.57056689
4.399128 3.5584579 -0.5711419
4.207406 3.5683382 -0.57963216
4.2307181 3.5695422 -0.57856852
4.2569981 3.5612247 -0.57667506
4.2646337 3.5651221 -0.57531285
4.2941422 3.5603218 -0.57368463
4.3325663 3.5649326 -0.57404238
4.3720226 3.5673401 -0.5705716
4.3879766 3.5617354 -0.5710665
4.3986506 3.5657938 -0.57528812
4.4512978 3.5611918 -0.57050782
4.4747157 3.5605612 -0.57002282
4.7846017 3.5651658 -0.57167023
4.2439194 3.578526 -0.57548016
4.2832603 3.5745869 -0.57695526
4.2964454 3.5775619 -0.5767988
4.3378735 3.5781803 -0.57340741
4.3524399 3.576509 -0.57450157
4.3785839 3.5748358 -0.57109994
4.4054384 3.5797091 -0.57265002
4.4249797 3.5785849 -0.57348299
4.4345803 3.5745256 -0.5706557
4.4618421 3.5799809 -0.57017857
4.2102633 3.5871706 -0.5781697
4.2346587 3.5842597 -0.57776064
4.3057103 3.5887878 -0.57737988
4.3941607 3.5860608 -0.57310283
4.41329 3.5890348 -0.57270837
4.4642992 3.5889919 -0.5708313
4.6719999 3.5827217 -0.57102621
4.2754183 3.5962546 -0.57786381
4.2885175 3.5984421 -0.57805365
4.3133187 3.5992796 -0.57656097
4.3244419 3.5948801 -0.57402527
4.3595233 3.5982997 -0.57488346
4.3644214 3.594723 -0.5748589
4.382081 3.5943539 -0.57489049
4.4007955 3.5958397 -0.5749504
4.4379106 3.5952587 -0.57533801
4.4405026 3.598835 -0.57069546
4.6690712 3.5916908 -0.57956952
4.1660771 3.6033514 -0.57880646
4.259666 3.6044207 -0.57827121
4.26546 3.6083331 -0.5784477
4.2925048 3.6001751 -0.57524979
4.3072472 3.6009023 -0.5721913
4.331151 3.6090002 -0.5774284
4.347249 3.6031299 -0.57517517
4.3512549 3.6089027 -0.57641506
4.3665586 3.6051443 -0.5746904
4.4001017 3.6069863 -0.57342964
4.4170094 3.6091039 -0.57485312
4.4382772 3.6067395 -0.57240874
4.4652619 3.6045442 -0.57022965
4.6226506 3.6014709 -0.57892722
4.2346554 3.6115003 -0.57747698
4.2500143 3.6180739 -0.57687449
4.2951522 3.6168954 -0.57872528
4.3150001 3.6163383 -0.57651949
4.3695478 3.6133342 -0.57450962
4.3929009 3.6148682 -0.57400763
4.4114532 3.6157665 -0.57346034
4.4659777 3.6144216 -0.5732218
4.4748063 3.6118169 -0.57254624
4.5012479 3.6132345 -0.5722847
4.285913 3.6234181 -0.57947719
4.3424816 3.6205678 -0.57694775
4.3662882 3.6248782 -0.57492483
4.3705606 3.6269045 -0.57577014
4.4148126 3.626225 -0.57361752
4.4278846 3.6272287 -0.57532018
4.2373524 3.6370051 -0.57989824
4.2664528 3.6373665 -0.57910228
4.293283 3.6308734 -0.57918888
4.3187084 3.6303144 -0.57995373
4.3446393 3.6375947 -0.5790658
4.3682561 3.6355155 -0.57553011
4.3105783 3.6462507 -0.57823402
4.3233399 3.6441846 -0.57795346
4.3858194 3.6420424 -0.57925886
4.2325206 3.6524785 -0.57864636
5.2704515 3.7662549 -0.57391411
5.2480683 3.7721179 -0.57691056
5.2473059 3.7894292 -0.57830638
5.2123718 3.7917805 -0.57602012
5.2086635 3.8111954 -0.57715976
5.1125603 3.8647923 -0.57969242
5.0821333 3.8856666 -0.57329917
5.0237274 3.911483 -0.57031995
5.0268435 3.9328084 -0.57997882
5.0135674 3.9444985 -0.57079494
4.9381976 3.9533088 -0.57669932
4.9977322 3.9555025 -0.57784647
4.964294 3.9633329 -0.57618874
4.9228139 3.9866278 -0.57744402
4.9417725 3.9906137 -0.57316381
4.9009042 4.0153394 -0.57897705
4.7273149 4.1142254 -0.5744946
4.6826682 4.1394591 -0.57825595
4.6399493 4.1669173 -0.57920933
4.6033359 4.1881952 -0.57844627
4.555408 4.2068944 -0.57616407
4.4985771 4.2296038 -0.57295513
4.5096374 4.233387 -0.57616591
4.4741702 4.2453914 -0.57310796
4.4733844 4.2541523 -0.57202876
4.7327437 4.2565546 -0.57164472
4.4298844 4.2932525 -0.57717359
4.3986926 4.3331017 -0.57655764
4.3403378 4.3602877 -0.57309389
4.290905 4.3747559 -0.57749993
4.2573199 4.3977628 -0.57823485
4.1907606 4.4295392 -0.57279223
4.315722 4.4317269 -0.57056236
4.2743168 4.4445233 -0.57148373
4.1854506 4.5030723 -0.57862681
3.2358813 -0.98615992 -0.56239545
3.3131731 -0.94486284 -0.56421167
1.8682145 -0.64002293 -0.561122
1.8414421 -0.63076246 -0.56566119
1.9297309 -0.63062423 -0.56963158
1.8837386 -0.62548357 -0.56166136
1.9304781 -0.62253082 -0.56043261
1.832031 -0.61778921 -0.56160861
1.8446807 -0.61563361 -0.56134927
1.8672097 -0.61353099 -0.56108856
1.9646493 -0.61404371 -0.56168932
1.8437998 -0.60084426 -0.56136501
1.8595262 -0.60906214 -0.56052577
1.9060411 -0.60493493 -0.56498885
1.8229265 -0.59389943 -0.56749779
1.8779075 -0.59757847 -0.56285983
2.0109797 -0.58916402 -0.56414908
1.83542 -0.57794648 -0.56381863
1.8440454 -0.5707885 -0.56880921
1.8272353 -0.56332469 -0.56590229
1.8305293 -0.56357771 -0.564116
1.8519826 -0.55977112 -0.56475079
1.8787915 -0.50652361 -0.56196934
1.8850882 -0.505983 -0.56071341
1.8971179 -0.48878229 -0.56423259
1.9147959 -0.45427877 -0.56491667
1.9464386 -0.44379368 -0.56715459
1.9416574 -0.43166164 -0.56548387
2.0753784 -0.4348903 -0.5667417
3.1750252 -0.31592038 -0.56877726
3.1739845 -0.2937904 -0.56490833
2.9542532 -0.21530652 -0.56132489
2.9836779 -0.21981351 -0.56439757
3.0807452 -0.21969432 -0.56381321
3.201148 -0.2198939 -0.56944984
2.9673517 -0.20171072 -0.56109273
2.937736 -0.18371043 -0.56268609
3.2015986 -0.18644948 -0.5633176
3.0407147 -0.17839313 -0.56335562
2.9780257 -0.164767 -0.56537563
2.9587941 -0.15897533 -0.56539297
3.034126 -0.15184696 -0.56256127
2.8854656 -0.13263199 -0.56715095
2.9152634 -0.13853544 -0.56355727
2.9381924 -0.13162434 -0.56659734
2.9804578 -0.13311867 -0.56435984
2.9138117 -0.12031215 -0.56175131
3.0949459 -0.12431384 -0.56946611
2.8908355 -0.098116942 -0.56567657
3.0681708 -0.098783158 -0.56640005
2.9064591 -0.087552294 -0.56599563
2.9358668 -0.086618416 -0.56939
2.9682596 -0.083694078 -0.5631724
3.0066516 -0.081800871 -0.56379187
3.1681075 -0.07359647 -0.5640769
3.1617358 -0.061294656 -0.56577331
2.8600919 -0.053408645 -0.56709933
2.8745441 -0.053642623 -0.56794769
2.9930682 -0.058385219 -0.56952035
3.1633596 -0.051303409 -0.56315178
2.8447227 -0.049781997 -0.560471
3.0608561 -0.041462313 -0.56260329
2.9033296 -0.037115596 -0.5694496
3.0107479 -0.039593864 -0.56337982
3.1574585 -0.033505026 -0.5686056
2.8484685 -0.022456424 -0.56525344
3.1529133 -0.022590121 -0.56303829
2.8672664 -0.01739748 -0.56736481
2.9107153 -0.015867433 -0.56202734
2.932364 -0.01661546 -0.5601958
3.1319444 -0.019072011 -0.56911087
2.8530426 -0.0083854524 -0.56684071
2.8814297 -0.0077866707 -0.56131262
2.8969598 -0.0068314904 -0.56000727
2.9000821 -0.008956789 -0.5626899
2.9275053 0.0065656565 -0.56591529
2.8389628 0.012933604 -0.56613058
2.8600988 0.018332278 -0.56971759
2.8977942 0.015729003 -0.56455851
2.9031947 0.016702956 -0.56008434
2.9962397 0.014508433 -0.56924343
2.8652282 0.02596995 -0.56773973
2.8700347 0.028477574 -0.56865579
2.8848758 0.024274096 -0.56294924
2.9247906 0.029305935 -0.56577694
2.9602878 0.024819624 -0.56068099
2.8945091 0.032067575 -0.56319624
2.9228976 0.036502358 -0.56074369
2.9450128 0.039602231 -0.56735247
3.0103014 0.034662627 -0.5688833
3.1181793 0.039738752 -0.56287193
2.9183903 0.044987682 -0.5636487
2.9436975 0.044974297 -0.56683522
2.9525731 0.045613129 -0.56221277
2.9633138 0.048354603 -0.56743491
3.1253231 0.047152728 -0.56573242
2.967392 0.054120567 -0.56239003
2.9749138 0.052864082 -0.56943697
2.9929905 0.050758112 -0.56623554
3.0101836 0.052891668 -0.56059074
2.8967516 0.072613277 -0.56253827
3.1024177 0.077312231 -0.568205
5.6837788 0.51201355 -0.56951582
5.6539168 0.53963965 -0.56346858
5.5506468 0.62492073 -0.56236887
5.5115352 0.65224081 -0.568811
5.4166737 0.72271132 -0.56425518
5.3628912 0.7557289 -0.56576902
5.3431153 0.76867574 -0.56346899
5.3324518 0.77752453 -0.56377107
5.3069944 0.79664034 -0.56112313
5.3242145 0.87991363 -0.56972474
5.3253064 0.89555568 -0.56319398
5.3510766 0.92089504 -0.56656992
5.3733311 0.94223773 -0.56822157
5.4862905 0.97856259 -0.56405437
5.3822474 1.003989 -0.56630307
5.4253902 1.0072576 -0.56481111
5.3740411 1.04275 -0.56252354
5.3545198 1.0780283 -0.56911981
5.3711467 1.1209496 -0.56198126
5.4085231 1.1813021 -0.56488699
3.2260506 1.4069278 -0.56218481
3.194406 1.4311407 -0.56526941
3.2213306 1.4351617 -0.56830871
3.2594166 1.4404333 -0.56341732
3.2891436 1.4518634 -0.56259191
3.2424507 1.4605501 -0.56173736
3.2641232 1.461862 -0.56939679
3.1892154 1.4779037 -0.56863785
3.2752349 1.4832631 -0.56747818
3.3339245 1.4999096 -0.56711906
3.3113554 1.5097464 -0.56900918
3.1615789 1.5122447 -0.56445467
3.2186739 1.5147712 -0.56400114
3.0965426 1.5211705 -0.56267375
3.176029 1.5342673 -0.56710565
3.137202 1.5507362 -0.5692299
3.0965164 1.5875057 -0.56765342
3.23961 1.6018543 -0.56988919
3.04283 1.6139201 -0.56373268
3.0777538 1.6226552 -0.56108588
2.8810501 1.6313187 -0.5650745
2.8935065 1.6357591 -0.56255525
2.8599167 1.6419719 -0.56429267
3.2149005 1.6428648 -0.56294179
2.7845488 1.6580878 -0.56791848
2.8294692 1.6599129 -0.56110799
3.016005 1.6509069 -0.56453317
3.0448802 1.657168 -0.5626685
2.7210999 1.6709414 -0.56163716
2.7367926 1.6720364 -0.5661056
2.9670475 1.6743507 -0.56172645
2.6810515 1.6863205 -0.56742543
3.1645317 1.6865399 -0.56686717
2.6082892 1.7069974 -0.56829286
2.6345296 1.7032387 -0.5658077
2.5820699 1.7271845 -0.56856704
2.5995109 1.7294675 -0.56224775
2.5758803 1.7447106 -0.5610621
2.5837574 1.773896 -0.56087232
2.6109018 1.7723109 -0.56462097
2.6149397 1.7804877 -0.56742805
2.5947375 1.7903104 -0.56607306
5.0717397 3.0997872 -0.56662518
5.0965133 3.0922763 -0.56498319
5.011044 3.1097851 -0.56466633
5.0246582 3.1043563 -0.56124312
4.9736457 3.1186485 -0.56109959
5.0188708 3.1114655 -0.56499904
4.9249897 3.1281857 -0.56316411
4.9577518 3.1297741 -0.56835997
4.9684091 3.1214504 -0.56287903
4.973557 3.1209638 -0.56730855
5.1168685 3.1215849 -0.56333959
5.1253543 3.1297362 -0.56665814
4.8748078 3.1370628 -0.56576121
4.9172115 3.1331382 -0.56691277
4.921494 3.1303663 -0.56162077
4.8187208 3.14922 -0.5670408
4.8259296 3.1458561 -0.56597644
4.8663001 3.1433501 -0.56109601
4.873301 3.142343 -0.56540394
4.7772017 3.1561415 -0.56817412
4.8064728 3.1570585 -0.56526077
4.8232436 3.1511033 -0.56080842
4.7285924 3.164835 -0.56783724
4.7537537 3.1683092 -0.56896812
4.6796246 3.1755731 -0.56828207
4.7267466 3.1718743 -0.5683831
4.6293411 3.1843543 -0.5697338
4.6006999 3.1986003 -0.56089711
4.6582785 3.1961107 -0.56867856
4.6793408 3.1907194 -0.56079859
4.5315471 3.2095063 -0.5636059
4.5711894 3.2009506 -0.56854516
4.5531163 3.2125905 -0.56026047
4.5784483 3.2155328 -0.56534761
4.4159222 3.2297571 -0.56034845
4.4893975 3.2247052 -0.56257051
4.5102644 3.2299647 -0.56188357
4.5606194 3.2219503 -0.56638217
5.1261201 3.2241051 -0.56748295
4.3633499 3.2395074 -0.5698722
4.3880692 3.2390361 -0.56368667
4.4283452 3.2354901 -0.56294036
4.5136299 3.2312095 -0.56594127
4.282372 3.2434642 -0.56320202
4.3207326 3.2436752 -0.56732911
4.3792648 3.2463417 -0.56362015
4.4142933 3.2489958 -0.56072128
4.4621539 3.2404194 -0.56311154
4.2338734 3.2530735 -0.5627923
4.2413421 3.25581 -0.56869447
4.3296885 3.259069 -0.56557596
4.3651752 3.2593775 -0.56418061
4.2189474 3.267339 -0.56727815
4.2830629 3.2686491 -0.56530643
4.3087125 3.2611256 -0.56560206
4.3167453 3.2696245 -0.56565017
4.3264198 3.2609987 -0.56295508
4.3306322 3.2656574 -0.56309664
4.4188452 3.2611291 -0.56506801
5.1293788 3.2648323 -0.56051588
4.1340818 3.275403 -0.56696272
4.1696186 3.2706044 -0.5682314
4.1849008 3.2799716 -0.56885463
4.233923 3.2729735 -0.56643379
4.2537017 3.2732592 -0.56032765
4.2642708 3.2763021 -0.56755364
4.2767653 3.2739282 -0.56461215
4.2909007 3.2760828 -0.56252891
4.3062835 3.2771151 -0.56634337
4.3277512 3.274296 -0.56043613
4.1615129 3.2892683 -0.56105077
4.2072058 3.2856677 -0.56211245
4.2298574 3.283426 -0.56680238
4.2348657 3.2838173 -0.56804448
4.2791328 3.2839365 -0.56098449
4.1035967 3.2957411 -0.56953257
4.207263 3.2957971 -0.56268024
4.2303948 3.2949851 -0.56413865
4.2764688 3.2923439 -0.56115806
4.380661 3.2973328 -0.56200475
4.1584592 3.303102 -0.56422353
4.1850901 3.3033121 -0.56735975
4.2027917 3.3026054 -0.5640313
4.2372971 3.3059049 -0.56233823
4.2637148 3.3008394 -0.5606721
4.2928429 3.304143 -0.56087863
4.3266997 3.3064497 -0.56034076
4.1187205 3.317668 -0.56728435
4.1376028 3.3130059 -0.56832576
4.151197 3.3172143 -0.56602246
4.1979985 3.3171146 -0.56382155
4.2120504 3.316227 -0.56471729
4.2359452 3.3146369 -0.5633775
4.240715 3.3184919 -0.56009328
4.2728505 3.3155472 -0.56142533
4.2955713 3.3134999 -0.56092286
4.0975718 3.3251522 -0.56779629
4.1737456 3.3289969 -0.56569672
4.1851525 3.3282928 -0.56527734
4.1910648 3.3221912 -0.56389725
4.2229514 3.3222101 -0.56420583
4.2509947 3.3231139 -0.56208277
4.2826862 3.3233628 -0.56344604
4.2990479 3.3269842 -0.56173855
4.3217597 3.3212476 -0.56103939
4.3533726 3.3228943 -0.56080884
4.0917406 3.3378587 -0.56861836
4.1288528 3.3322682 -0.56715274
4.1397243 3.3382411 -0.56440157
4.169045 3.3307981 -0.56549352
4.201129 3.3309147 -0.56511331
4.2429619 3.338733 -0.56458175
4.2500725 3.3340609 -0.56370372
4.2752728 3.3384542 -0.56370848
4.2884836 3.3370521 -0.56293476
4.3049202 3.3373985 -0.56421739
4.3392372 3.3323333 -0.56012017
4.3443193 3.3336675 -0.56125844
4.3860617 3.3322177 -0.56017166
4.1245971 3.3472657 -0.56828231
4.1477513 3.3415093 -0.56763804
4.1886249 3.3467753 -0.56843084
4.201139 3.340518 -0.56609702
4.2394667 3.3486066 -0.56505829
4.2441711 3.3452692 -0.56537372
4.2546439 3.3459282 -0.56548703
4.2678528 3.3462288 -0.56403047
4.2899714 3.3404312 -0.56199872
4.3028984 3.3430443 -0.56072509
4.3210011 3.3401775 -0.5612058
4.3434939 3.3443661 -0.56151992
4.3824248 3.3439505 -0.56081659
4.1630082 3.3579619 -0.56659096
4.1759572 3.3584888 -0.56638092
4.1911945 3.3556743 -0.56549895
4.2053399 3.3523438 -0.56595886
4.2189689 3.3553975 -0.56604576
4.2273397 3.3536096 -0.5656904
4.2563653 3.3553166 -0.56605935
4.3009915 3.3554568 -0.56485194
4.3652992 3.3545346 -0.56241947
4.1502008 3.3654165 -0.56759858
4.1918588 3.3635468 -0.56679177
4.2214389 3.3612163 -0.56400502
4.2495122 3.3676555 -0.56853497
4.2603073 3.3645179 -0.5631575
4.2978878 3.3628788 -0.56378424
4.3335981 3.3640406 -0.56216061
4.367116 3.361124 -0.56124699
4.3800926 3.3621707 -0.56085116
4.4416142 3.3668735 -0.56074584
4.1810226 3.3711212 -0.5678947
4.2102094 3.3702624 -0.56988811
4.2263823 3.3786826 -0.5655849
4.2403164 3.3722746 -0.56444174
4.2538786 3.3761039 -0.56441402
4.2839384 3.3743587 -0.56564581
4.3184552 3.3739955 -0.56405425
4.3396811 3.3765774 -0.56068754
4.3472862 3.3772388 -0.56198871
4.3633237 3.3730199 -0.56089795
4.3913651 3.3706453 -0.56068772
4.4257011 3.3785408 -0.56074446
4.4338284 3.3742464 -0.56078076
4.2351465 3.3863449 -0.566324
4.2457418 3.3872457 -0.56495881
4.2685819 3.3828216 -0.56552905
4.2894664 3.3839428 -0.56440085
4.2968025 3.3830662 -0.56471539
4.3572907 3.3832855 -0.56370896
4.3814883 3.3890707 -0.56153709
4.1826625 3.3922658 -0.5696398
4.1973028 3.3947856 -0.5683825
4.2492657 3.3934617 -0.56722707
4.2729578 3.3929436 -0.56662989
4.3087673 3.395659 -0.56262982
4.317327 3.3906794 -0.5645057
4.3299961 3.3976247 -0.56458938
4.3443437 3.3910518 -0.5650425
4.3829803 3.3954339 -0.56296617
4.397007 3.3981857 -0.5601353
4.4128981 3.390373 -0.56052083
4.4302549 3.3931241 -0.56153733
4.4527664 3.3990889 -0.56467092
5.1721654 3.3948827 -0.56523532
4.155252 3.408813 -0.5679118
4.1951785 3.4031966 -0.56754529
4.2002053 3.4035864 -0.56862563
4.227376 3.4049249 -0.56635743
4.2945437 3.4013433 -0.56702983
4.3236642 3.4027333 -0.56013107
4.3331766 3.4084992 -0.56806237
4.3549385 3.4048965 -0.56337595
4.3663049 3.4057055 -0.56232083
4.3775606 3.404644 -0.56259674
4.3865952 3.407196 -0.56170565
4.4051228 3.4005861 -0.56455785
4.435113 3.4069314 -0.56310552
4.445487 3.4053473 -0.56043267
4.1581759 3.4134829 -0.56749982
4.2274027 3.410399 -0.56899428
4.2490849 3.4175274 -0.56812537
4.2515545 3.4180713 -0.56863719
4.2630181 3.4115698 -0.56151867
4.2735424 3.4120851 -0.56851017
4.3019829 3.4147499 -0.56612796
4.3262796 3.4195974 -0.56672096
4.3372788 3.413347 -0.56367701
4.3835998 3.4122748 -0.56424934
4.4055805 3.4155266 -0.56307101
4.4569325 3.4193363 -0.56046975
4.2389936 3.4278913 -0.5678069
4.2536497 3.4213002 -0.56772596
4.2796154 3.4276559 -0.56489301
4.2880402 3.420537 -0.56624311
4.3192177 3.4234836 -0.56562531
4.359067 3.4288573 -0.56542361
4.3875084 3.4243405 -0.56518871
4.3956547 3.423754 -0.56423044
4.4082074 3.4299204 -0.56330347
4.4378428 3.4245214 -0.56291884
4.4532585 3.4246395 -0.56182837
4.4878426 3.4252684 -0.56144023
4.4956861 3.4243009 -0.5604499
4.5031133 3.4236057 -0.56076235
4.1909328 3.4347641 -0.56975704
4.2058988 3.4316812 -0.56947899
4.2507296 3.4380856 -0.56703568
4.281024 3.4370582 -0.56888217
4.2909064 3.4329023 -0.5673902
4.3376861 3.4310951 -0.56781405
4.3533511 3.4390945 -0.56614101
4.3914843 3.4389486 -0.56565881
4.4034634 3.43244 -0.56429285
4.434865 3.4341578 -0.56320596
4.4478312 3.4351416 -0.56392622
4.4989572 3.4354193 -0.56131732
4.5223866 3.4331121 -0.56047505
4.5973282 3.4341824 -0.56238586
4.2725658 3.4409471 -0.56733567
4.2914324 3.4486337 -0.56850421
4.3065538 3.4442134 -0.56842858
4.3102441 3.449872 -0.56762064
4.3435268 3.443764 -0.56737369
4.3592224 3.4404681 -0.56638956
4.391789 3.442889 -0.56467324
4.420825 3.4418995 -0.56529969
4.4538984 3.4462142 -0.56304234
4.4938645 3.4424634 -0.56086314
4.5222688 3.4442756 -0.56141442
4.5624161 3.4453323 -0.56241447
4.2419281 3.456995 -0.56804144
4.2593517 3.4536049 -0.56929284
4.2917724 3.4516366 -0.56890005
4.384789 3.4513524 -0.56624496
4.4002395 3.4567604 -0.56507921
4.4487829 3.4552796 -0.56176358
4.4711919 3.4592974 -0.56234479
4.5070496 3.4505458 -0.56011117
4.3023081 3.4603841 -0.56918406
4.3342571 3.4667335 -0.5674215
4.3449717 3.4629092 -0.56877798
4.3529692 3.4693067 -0.56624103
4.4033666 3.4663866 -0.56569088
4.4120827 3.4651301 -0.5639801
4.4254985 3.4671347 -0.56258047
4.4457669 3.4680037 -0.56290334
4.4593673 3.4666023 -0.5648939
4.4666915 3.4630523 -0.56200868
4.4867868 3.4693663 -0.56127048
4.4987664 3.4669337 -0.56524456
4.5066833 3.4656987 -0.56111342
4.5572286 3.4653771 -0.56011784
4.5644116 3.4679306 -0.56103754
4.3840513 3.4787779 -0.5684334
4.3969049 3.4757764 -0.56547987
4.4049387 3.4763975 -0.56454164
4.4164777 3.4734998 -0.56527311
4.4251647 3.4722447 -0.56410027
4.4580564 3.4794779 -0.56610119
4.4612012 3.4742975 -0.56645113
4.4711275 3.4752166 -0.561836
4.4976602 3.4753106 -0.56270939
4.5569558 3.4747827 -0.56105542
4.5678105 3.4785528 -0.56196284
4.7404227 3.4798114 -0.56082219
4.2874203 3.4839294 -0.56951261
4.3089385 3.4828124 -0.56683481
4.3191848 3.4879045 -0.56997401
4.3472319 3.4842741 -0.5683611
4.3561573 3.4874732 -0.56789553
4.3661747 3.4805548 -0.56720889
4.4102573 3.4842346 -0.56518501
4.4623241 3.4821594 -0.56439161
4.5181718 3.4848812 -0.56218231
4.5279455 3.4837861 -0.56086856
4.5354228 3.4873059 -0.56205922
4.6666589 3.4817078 -0.56092805
4.3188801 3.4992235 -0.56872797
4.3476763 3.4942 -0.56979531
4.3608704 3.4975863 -0.56850594
4.3769126 3.4900951 -0.56878465
4.4121099 3.4965577 -0.56989497
4.4265485 3.492192 -0.56427157
4.4533768 3.4965181 -0.56616527
4.4692116 3.4915986 -0.56318754
4.4708352 3.4943991 -0.56287754
4.4917955 3.4989321 -0.56428909
4.5010495 3.4996431 -0.56178468
4.5153389 3.4956527 -0.56504142
4.5509853 3.492985 -0.56090349
4.5613117 3.4981828 -0.56529635
4.5933065 3.4953361 -0.56265801
4.6288357 3.4930465 -0.56010473
4.6677656 3.4906669 -0.5633682
4.3111897 3.504277 -0.56920952
4.3721495 3.5076308 -0.5670495
4.4153194 3.5001283 -0.56698149
4.4216528 3.5012057 -0.56520277
4.4528751 3.5076382 -0.56458062
4.4714718 3.5057435 -0.56541699
4.4813209 3.5024581 -0.56390917
4.5078778 3.509089 -0.56498623
4.5124149 3.5010931 -0.56344551
4.5260553 3.5046537 -0.56326348
4.5579638 3.5064547 -0.56676584
4.5606265 3.5009427 -0.56247509
4.5718198 3.5085089 -0.56358182
4.5823717 3.502727 -0.56225884
4.6262851 3.5051973 -0.56136394
4.688241 3.5018032 -0.56292093
4.3696427 3.5196021 -0.56968695
4.3778577 3.5122054 -0.56770593
4.4034271 3.5121975 -0.56778544
