# .PCD v0.7 - Point Cloud Data file format
VERSION 0.7
FIELDS x y z
SIZE 4 4 4
TYPE F F F
COUNT 1 1 1
WIDTH 1541
HEIGHT 1
VIEWPOINT 0 0 0 1 0 0 0
POINTS 1541
DATA ascii
2.9542532 -0.21530652 0.11191481
2.9836779 -0.21981351 0.10771292
3.0807452 -0.21969432 0.10526347
3.201148 -0.2198939 0.095857561
2.9673517 -0.20171072 0.11237943
2.937736 -0.18371043 0.11256689
3.2015986 -0.18644948 0.10354728
3.0407147 -0.17839313 0.10892636
2.9780257 -0.164767 0.10951626
2.9587941 -0.15897533 0.11037481
3.034126 -0.15184696 0.11118096
2.8854656 -0.13263199 0.11216074
2.9152634 -0.13853544 0.11453676
2.9381924 -0.13162434 0.11111063
2.9804578 -0.13311867 0.11195087
2.9138117 -0.12031215 0.11724693
3.0949459 -0.12431384 0.10368532
2.8908355 -0.098116942 0.11509675
3.0681708 -0.098783158 0.10879189
2.9064591 -0.087552294 0.11478871
2.9358668 -0.086618416 0.1105234
2.9682596 -0.083694078 0.11585534
3.0066516 -0.081800871 0.1141246
3.1681075 -0.07359647 0.10917401
3.1617358 -0.061294656 0.10826147
2.8600919 -0.053408645 0.11675274
2.8745441 -0.053642623 0.11544228
2.9930682 -0.058385219 0.10993779
3.1633596 -0.051303409 0.11130041
2.8447227 -0.049781997 0.12402302
3.0608561 -0.041462313 0.11552197
2.9033296 -0.037115596 0.11382324
3.0107479 -0.039593864 0.11640358
3.1574585 -0.033505026 0.10688168
2.8484685 -0.022456424 0.12042314
3.1529133 -0.022590121 0.11309844
2.8672664 -0.01739748 0.11796594
2.9107153 -0.015867433 0.12200713
2.932364 -0.01661546 0.12312263
3.1319444 -0.019072011 0.10785836
2.8530426 -0.0083854524 0.11936063
2.8814297 -0.0077866707 0.1240195
2.8969598 -0.0068314904 0.1248818
2.9000821 -0.008956789 0.12200528
2.9275053 0.0065656565 0.11866063
2.8389628 0.012933604 0.12151837
2.8600988 0.018332278 0.11753082
2.8977942 0.015729003 0.12137854
2.9031947 0.016702956 0.12572253
2.9962397 0.014508433 0.11356181
2.8652282 0.02596995 0.11970609
2.8700347 0.028477574 0.11875969
2.8848758 0.024274096 0.12379372
2.9247906 0.029305935 0.11995906
2.9602878 0.024819624 0.12372345
2.8945091 0.032067575 0.12361401
2.9228976 0.036502358 0.12538373
2.9450128 0.039602231 0.11823988
3.0103014 0.034662627 0.11443424
3.1181793 0.039738752 0.11729908
2.9183903 0.044987682 0.12302572
2.9436975 0.044974297 0.11905152
2.9525731 0.045613129 0.12341893
2.9633138 0.048354603 0.1179986
3.1253231 0.047152728 0.1145702
2.967392 0.054120567 0.12318033
2.9749138 0.052864082 0.11584991
2.9929905 0.050758112 0.11838073
3.0101836 0.052891668 0.12357914
2.8967516 0.072613277 0.126118
3.1024177 0.077312231 0.1142447
5.6837788 0.51201355 0.052688122
5.6539168 0.53963965 0.06096673
5.5506468 0.62492073 0.069329917
5.5115352 0.65224081 0.06541431
5.4166737 0.72271132 0.07626456
5.3628912 0.7557289 0.077997923
5.3431153 0.76867574 0.081525505
5.3324518 0.77752453 0.081976116
5.3069944 0.79664034 0.086320579
5.3242145 0.87991363 0.081131458
5.3253064 0.89555568 0.08835721
5.3510766 0.92089504 0.08537823
5.3733311 0.94223773 0.084041893
5.4862905 0.97856259 0.086384058
5.3822474 1.003989 0.088598132
5.4253902 1.0072576 0.088891804
5.3740411 1.04275 0.094461381
5.3545198 1.0780283 0.090154946
5.3711467 1.1209496 0.098791122
5.4085231 1.1813021 0.097573936
3.2260506 1.4069278 0.17925793
3.194406 1.4311407 0.17831379
3.2213306 1.4351617 0.17462671
3.2594166 1.4404333 0.17856729
3.2891436 1.4518634 0.17900139
3.2424507 1.4605501 0.18172693
3.2641232 1.461862 0.17346346
3.1892154 1.4779037 0.17732447
3.2752349 1.4832631 0.17604309
3.3339245 1.4999096 0.17535168
3.3113554 1.5097464 0.17463619
3.1615789 1.5122447 0.18398988
3.2186739 1.5147712 0.18277496
3.0965426 1.5211705 0.18822581
3.176029 1.5342673 0.18193227
3.137202 1.5507362 0.18180555
3.0965164 1.5875057 0.18639177
3.23961 1.6018543 0.18035889
3.04283 1.6139201 0.19323575
3.0777538 1.6226552 0.19519812
2.8810501 1.6313187 0.19778293
2.8935065 1.6357591 0.20011818
2.8599167 1.6419719 0.19972879
3.2149005 1.6428648 0.19000781
2.7845488 1.6580878 0.19923013
2.8294692 1.6599129 0.20470983
3.016005 1.6509069 0.19502521
3.0448802 1.657168 0.19627911
2.7210999 1.6709414 0.20809525
2.7367926 1.6720364 0.20319456
2.9670475 1.6743507 0.20046848
2.6810515 1.6863205 0.20429713
3.1645317 1.6865399 0.18973064
2.6082892 1.7069974 0.2066865
2.6345296 1.7032387 0.20816851
2.5820699 1.7271845 0.20818806
2.5995109 1.7294675 0.21405917
2.5758803 1.7447106 0.21670341
2.5837574 1.773896 0.21802634
2.6109018 1.7723109 0.21335912
2.6149397 1.7804877 0.2108168
2.5947375 1.7903104 0.21326649
5.0717397 3.0997872 0.19709903
5.0965133 3.0922763 0.1976077
5.011044 3.1097851 0.2014274
5.0246582 3.1043563 0.20416224
4.9736457 3.1186485 0.20657825
5.0188708 3.1114655 0.2009297
4.9249897 3.1281857 0.20649105
4.9577518 3.1297741 0.20035315
4.9684091 3.1214504 0.20509809
4.973557 3.1209638 0.20049149
5.1168685 3.1215849 0.19999743
5.1253543 3.1297362 0.19680405
4.8748078 3.1370628 0.20588869
4.9172115 3.1331382 0.20322615
4.921494 3.1303663 0.2082445
4.8187208 3.14922 0.20694172
4.8259296 3.1458561 0.20761961
4.8663001 3.1433501 0.21111
4.873301 3.142343 0.20654231
4.7772017 3.1561415 0.20743722
4.8064728 3.1570585 0.20947295
4.8232436 3.1511033 0.21311158
4.7285924 3.164835 0.20970619
4.7537537 3.1683092 0.20795381
4.6796246 3.1755731 0.21130264
4.7267466 3.1718743 0.20955187
4.6293411 3.1843543 0.21184254
4.6006999 3.1986003 0.22223514
4.6582785 3.1961107 0.21254617
4.6793408 3.1907194 0.21949917
4.5315471 3.2095063 0.22221106
4.5711894 3.2009506 0.21563435
4.5531163 3.2125905 0.22502184
4.5784483 3.2155328 0.219289
4.4159222 3.2297571 0.23004025
4.4893975 3.2247052 0.22528291
4.5102644 3.2299647 0.2255643
4.5606194 3.2219503 0.2191177
5.1261201 3.2241051 0.20041895
4.3633499 3.2395074 0.22263855
4.3880692 3.2390361 0.22801805
4.4283452 3.2354901 0.22733474
4.5136299 3.2312095 0.2214666
4.282372 3.2434642 0.2320199
4.3207326 3.2436752 0.22670871
4.3792648 3.2463417 0.22870559
4.4142933 3.2489958 0.23062873
4.4621539 3.2404194 0.22633862
4.2338734 3.2530735 0.23440152
4.2413421 3.25581 0.22840446
4.3296885 3.259069 0.22890657
4.3651752 3.2593775 0.2292034
4.2189474 3.267339 0.23106462
4.2830629 3.2686491 0.23108816
4.3087125 3.2611256 0.22963434
4.3167453 3.2696245 0.22973675
4.3264198 3.2609987 0.23171681
4.3306322 3.2656574 0.23166388
4.4188452 3.2611291 0.22672027
5.1293788 3.2648323 0.20919865
4.1340818 3.275403 0.23441744
4.1696186 3.2706044 0.23181146
4.1849008 3.2799716 0.23115379
4.233923 3.2729735 0.23170537
4.2537017 3.2732592 0.23719603
4.2642708 3.2763021 0.22979474
4.2767653 3.2739282 0.2322281
4.2909007 3.2760828 0.23396736
4.3062835 3.2771151 0.22972637
4.3277512 3.274296 0.23481882
4.1615129 3.2892683 0.24011683
4.2072058 3.2856677 0.23745626
4.2298574 3.283426 0.23195887
4.2348657 3.2838173 0.23058051
4.2791328 3.2839365 0.23624903
4.1035967 3.2957411 0.23376769
4.207263 3.2957971 0.23736662
4.2303948 3.2949851 0.23514807
4.2764688 3.2923439 0.23655671
4.380661 3.2973328 0.2326858
4.1584592 3.303102 0.23769891
4.1850901 3.3033121 0.23374408
4.2027917 3.3026054 0.23647964
4.2372971 3.3059049 0.23724586
4.2637148 3.3008394 0.23784286
4.2928429 3.304143 0.23688108
4.3266997 3.3064497 0.23646736
4.1187205 3.317668 0.23657578
4.1376028 3.3130059 0.23472446
4.151197 3.3172143 0.23679751
4.1979985 3.3171146 0.23752517
4.2120504 3.316227 0.23614901
4.2359447 3.3146369 0.23666352
4.240715 3.3184919 0.23997539
4.2728505 3.3155472 0.23750031
4.2955713 3.3134999 0.237194
4.0975718 3.3251522 0.23708051
4.1737456 3.3289969 0.23697406
4.1851525 3.3282928 0.23700237
4.1910648 3.3221912 0.23790669
4.2229514 3.3222101 0.23660135
4.2509947 3.3231139 0.23788589
4.2826862 3.3233628 0.23554456
4.2990479 3.3269842 0.23690838
4.3217597 3.3212476 0.23662424
4.3533726 3.3228943 0.23594272
4.0917406 3.3378587 0.2370432
4.1288528 3.3322682 0.23708034
4.1397243 3.3382411 0.23976922
4.169045 3.3307981 0.23740923
4.201129 3.3309147 0.23679006
4.2429619 3.338733 0.23638099
4.2500725 3.3340609 0.23681408
4.2752728 3.3384542 0.23622823
4.2884836 3.3370521 0.23652089
4.3049202 3.3373985 0.23474222
4.3392372 3.3323333 0.23751909
4.3443193 3.3336675 0.2362867
4.3860617 3.3322177 0.23599654
4.1245971 3.3472657 0.23679495
4.1477513 3.3415093 0.2364412
4.1886249 3.3467753 0.2346192
4.201139 3.340518 0.23626167
4.2394667 3.3486066 0.23648149
4.2441711 3.3452692 0.23586148
4.2546439 3.3459282 0.2354517
4.2678528 3.3462288 0.2365067
4.2899714 3.3404312 0.23756862
4.3028984 3.3430443 0.23855907
4.3210011 3.3401775 0.23737693
4.3434939 3.3443661 0.2365573
4.3824248 3.3439505 0.23602122
4.1630082 3.3579619 0.23778701
4.1759572 3.3584888 0.2376163
4.1911945 3.3556743 0.23788679
4.2053399 3.3523438 0.23682737
4.2189689 3.3553975 0.23645836
4.2273397 3.3536096 0.23646659
4.2563653 3.3553166 0.23527032
4.3009915 3.3554568 0.23508555
4.3652992 3.3545346 0.23545748
4.1502008 3.3654165 0.23753446
4.1918588 3.3635468 0.23694748
4.2214389 3.3612163 0.23869365
4.2495122 3.3676555 0.23359668
4.2603073 3.3645179 0.23847926
4.2978878 3.3628788 0.23659962
4.3335981 3.3640406 0.23715776
4.367116 3.361124 0.23688287
4.3800926 3.3621707 0.23692131
4.4416142 3.3668735 0.23532301
4.1810226 3.3711212 0.23654372
4.2102094 3.3702624 0.23359931
4.2263823 3.3786826 0.23778754
4.2403164 3.3722746 0.23818964
4.2538786 3.3761039 0.23797387
4.2839384 3.3743587 0.23572052
4.3184552 3.3739955 0.2362119
4.3396811 3.3765774 0.23903084
4.3472862 3.3772388 0.23752505
4.3633237 3.3730199 0.23791248
4.3913651 3.3706453 0.23713231
4.4257011 3.3785408 0.23637426
4.4338284 3.3742464 0.23588055
4.2351465 3.3863449 0.23713762
4.2457418 3.3872457 0.23821151
4.2685819 3.3828216 0.236718
4.2894664 3.3839428 0.23724371
4.2968025 3.3830662 0.23665851
4.3572907 3.3832855 0.2357803
4.3814883 3.3890707 0.23746479
4.1826625 3.3922658 0.23574996
4.1973028 3.3947856 0.23666608
4.2492657 3.3934617 0.23613054
4.2729578 3.3929436 0.2359606
4.3087673 3.395659 0.2389617
4.317327 3.3906794 0.23658544
4.3299961 3.3976247 0.23643374
4.3443437 3.3910518 0.23522145
4.3829803 3.3954339 0.23629218
4.397007 3.3981857 0.23880959
4.4128981 3.390373 0.23755777
4.4302549 3.3931241 0.2361297
4.4527664 3.3990889 0.23257852
5.1721654 3.3948827 0.20929706
4.155252 3.408813 0.23911566
4.1951785 3.4031966 0.23796624
4.2002053 3.4035864 0.2367487
4.227376 3.4049249 0.238226
4.2945437 3.4013433 0.23528284
4.3236642 3.4027333 0.2413246
4.3331766 3.4084992 0.23338103
4.3549385 3.4048965 0.23720831
4.3663049 3.4057055 0.23794419
4.3775606 3.404644 0.23726618
4.3865952 3.407196 0.23799372
4.4051228 3.4005861 0.23425359
4.435113 3.4069314 0.23506486
4.445487 3.4053473 0.23733377
4.1581759 3.4134829 0.23965627
4.2274027 3.410399 0.23585141
4.2490849 3.4175274 0.2363773
4.2515545 3.4180713 0.23581469
4.2630181 3.4115698 0.24225551
4.2735424 3.4120851 0.23497021
4.3019829 3.4147499 0.23658431
4.3262796 3.4195974 0.23546094
4.3372788 3.4133472 0.23786014
4.3835998 3.4122748 0.23578805
4.4055805 3.4155266 0.23643023
4.4569325 3.4193363 0.23759997
4.2389936 3.4278913 0.2375012
4.2536497 3.4213002 0.23681158
4.2796154 3.4276559 0.2391277
4.2880402 3.420537 0.2371794
4.3192177 3.4234836 0.23695964
4.359067 3.4288573 0.23616773
4.3875084 3.4243405 0.2352984
4.3956547 3.423754 0.23597234
4.4082074 3.4299204 0.2367965
4.4378428 3.4245214 0.23599756
4.4532585 3.4246395 0.23660928
4.4878426 3.4252684 0.23594397
4.4956861 3.4243009 0.23664147
4.5031133 3.4236057 0.23606414
4.1909328 3.4347641 0.2373836
4.2058988 3.4316812 0.23704702
4.2507296 3.4380856 0.23838586
4.281024 3.4370582 0.23554552
4.2909064 3.4329023 0.23652917
4.3376861 3.4310951 0.23455626
4.3533511 3.4390945 0.2361145
4.3914843 3.4389486 0.23539537
4.4034634 3.43244 0.23607635
4.434865 3.4341578 0.23625976
4.4478312 3.4351416 0.23518133
4.4989572 3.4354193 0.23619872
4.5223866 3.4331121 0.23619717
4.5973282 3.4341824 0.23199421
4.2725658 3.4409471 0.23753816
4.2914324 3.4486337 0.23614436
4.3065538 3.4442134 0.23553747
4.3102441 3.449872 0.23649627
4.3435268 3.443764 0.23541212
4.3592224 3.4404681 0.23574746
4.391789 3.442889 0.23655611
4.420825 3.4418995 0.23497498
4.4538984 3.4462142 0.23639745
4.4938645 3.4424634 0.23714471
4.5222688 3.4442756 0.23579091
4.5624161 3.4453323 0.23358572
4.2419281 3.456995 0.23855138
4.2593517 3.4536049 0.23659629
4.2917724 3.4516366 0.23588055
4.384789 3.4513524 0.23560619
4.4002395 3.4567604 0.23654222
4.4487829 3.4552796 0.23826289
4.4711919 3.4592974 0.23717117
4.5070496 3.4505458 0.23786497
4.3023081 3.4603841 0.23568082
4.3342571 3.4667335 0.23674071
4.3449717 3.4629092 0.2348702
4.3529692 3.4693067 0.23745519
4.4033666 3.4663866 0.23628885
4.4120827 3.4651301 0.23766458
4.4254985 3.4671347 0.23873681
4.4457669 3.4680037 0.2378211
4.4593673 3.4666023 0.23534173
4.4666915 3.4630523 0.23782521
4.4867868 3.4693663 0.23823172
4.4987664 3.4669337 0.23377401
4.5066833 3.4656987 0.23759228
4.5572286 3.4653771 0.23698884
4.5644116 3.4679306 0.23596656
4.3840513 3.4787779 0.23474127
4.3969049 3.4757764 0.23714578
4.4049387 3.4763975 0.23786038
4.4164777 3.4734998 0.23663181
4.4251647 3.4722447 0.23747158
4.4580564 3.4794779 0.23478627
4.4612012 3.4742975 0.23409349
4.4711275 3.4752166 0.2384339
4.4976602 3.4753106 0.23673588
4.5569558 3.4747827 0.23650604
4.5678105 3.4785528 0.23543864
4.7404227 3.4798114 0.23123372
4.2874203 3.4839294 0.23693222
4.3089385 3.4828124 0.23887926
4.3191848 3.4879045 0.2356652
4.3472319 3.4842741 0.2362259
4.3561573 3.4874732 0.23656261
4.3661747 3.4805548 0.23660749
4.4102573 3.4842346 0.23742217
4.4623241 3.4821594 0.23648626
4.5181718 3.4848812 0.23707259
4.5279455 3.4837861 0.23802644
4.5354228 3.4873059 0.23677009
4.6666589 3.4817078 0.23352677
4.3188801 3.4992235 0.237454
4.3476763 3.4942 0.2352494
4.3608704 3.4975863 0.2362839
4.3769126 3.4900951 0.2351492
4.4121099 3.4965577 0.23324448
4.4265485 3.492192 0.23820043
4.4533768 3.4965181 0.23567456
4.4692116 3.4915986 0.23791921
4.4708352 3.4943991 0.23831034
4.4917955 3.4989321 0.23645926
4.5010495 3.4996431 0.23870355
4.5153389 3.4956527 0.23481607
4.5509853 3.492985 0.23770541
4.5613117 3.4981828 0.23324215
4.5933065 3.4953361 0.23474014
4.6288357 3.4930465 0.2360689
4.6677656 3.4906669 0.23147953
4.3111897 3.504277 0.23745292
4.3721495 3.5076308 0.23785985
4.4153194 3.5001283 0.23622161
4.4216528 3.5012057 0.23785019
4.4528751 3.5076382 0.23779821
4.4714718 3.5057435 0.23629147
4.4813209 3.5024581 0.23733312
4.5078778 3.509089 0.23574007
4.5124149 3.5010931 0.23675823
4.5260553 3.5046537 0.23668134
4.5579638 3.5064547 0.23227102
4.5606265 3.5009427 0.23621082
4.5718198 3.5085089 0.23511332
4.5823717 3.502727 0.23583043
4.6262851 3.5051975 0.23546612
4.688241 3.5018032 0.2318117
4.3696427 3.5196021 0.2358712
4.3778577 3.5122054 0.2372421
4.4034271 3.5121975 0.23636192
4.4362855 3.5170634 0.23346621
4.4703975 3.5164332 0.2346797
4.5130153 3.5147176 0.23495543
4.5378594 3.5158699 0.23730254
4.5448875 3.5153387 0.23677105
4.5769362 3.5153165 0.23697287
4.5814438 3.5110688 0.23573244
4.6022787 3.5183074 0.23657125
4.6161232 3.5108204 0.23525923
4.6434402 3.5173197 0.23160022
4.3172083 3.5295873 0.23809987
4.425117 3.5211329 0.23683041
4.4343967 3.5207605 0.23623407
4.4848661 3.5258064 0.23594451
4.4930067 3.5282946 0.23632759
4.5056114 3.5298915 0.23588187
4.5284352 3.5260305 0.23583299
4.5436897 3.5244546 0.23831719
4.5548439 3.522928 0.23628569
4.5704584 3.5287645 0.23517424
4.58002 3.5212498 0.23478496
4.5909123 3.5201833 0.23688954
4.6438375 3.5278492 0.23710084
4.6512656 3.5205426 0.23642486
4.245924 3.5398483 0.24430531
4.3325558 3.5303507 0.23764902
4.4551129 3.5371718 0.23483348
4.464736 3.5327821 0.23483568
4.4793439 3.5367444 0.23548335
4.482451 3.539093 0.23702919
4.5342369 3.5334973 0.23654348
4.5842342 3.5317764 0.2358318
4.6038084 3.5351458 0.23441851
4.2363067 3.5443518 0.24482256
4.4324169 3.5444517 0.23593909
4.4492817 3.5425787 0.23439819
4.5002694 3.5452044 0.23599136
4.5219612 3.5419686 0.23594755
4.5393314 3.545552 0.23619884
4.5867052 3.5487413 0.23589599
4.5983982 3.5484655 0.23645383
4.6320353 3.5482802 0.23617214
4.6493955 3.5488274 0.2376501
4.6637502 3.5498958 0.23629779
4.6852736 3.5483394 0.23348433
4.7086611 3.5449853 0.23559672
4.7589545 3.5421844 0.23256463
4.8289771 3.548923 0.23221278
4.4237766 3.5508578 0.23635018
4.4407673 3.5529146 0.23710591
4.4879961 3.5509825 0.23694885
4.5062466 3.5539904 0.23917025
4.545351 3.5537231 0.23529476
4.5563679 3.553668 0.23733729
4.5650296 3.5529516 0.24012786
4.6107893 3.5586641 0.23752481
4.6205564 3.5509002 0.23885661
4.6623182 3.5558391 0.23667783
4.6913528 3.5529802 0.23607677
4.7362633 3.5565405 0.23090392
4.7640162 3.5562899 0.22889227
4.4818964 3.568418 0.23818606
4.4964962 3.5641177 0.23635215
4.5090861 3.5644536 0.23571271
4.552886 3.5671465 0.23619467
4.5612679 3.5678518 0.23674142
4.5852013 3.5668793 0.23618203
4.6039553 3.5621853 0.23746043
4.6162839 3.5647631 0.23836684
4.6353803 3.562835 0.23683327
4.661499 3.5625243 0.23764485
4.4393568 3.5729637 0.23748124
4.4445376 3.5701849 0.23623103
4.4594502 3.5758104 0.23615789
4.4826932 3.5749261 0.23526275
4.5093288 3.57458 0.23598844
4.5144014 3.5767026 0.23574376
4.5361338 3.5780113 0.23643535
4.5532503 3.5778472 0.23636234
4.5683527 3.5798731 0.23904526
4.5771866 3.5718927 0.23684543
4.6164441 3.5765383 0.23776376
4.6911731 3.5731955 0.23694211
4.3770714 3.5865817 0.23972613
4.4476051 3.5825801 0.23623747
4.4877815 3.5897386 0.23757064
4.5056596 3.5833416 0.23580617
4.5767064 3.5840843 0.23257619
4.4583507 3.5982215 0.2366578
4.4901938 3.5910523 0.23665541
4.5071859 3.5908079 0.23737311
4.5215302 3.5954516 0.23697722
4.5046959 3.6069732 0.23767376
5.2539124 3.7790101 0.22400111
5.2774563 3.7732077 0.22205848
5.2810597 3.7721674 0.22226191
5.2238684 3.7916172 0.22284126
5.242733 3.7962232 0.22986364
5.2029581 3.818929 0.23067248
5.1548233 3.8453958 0.23281747
5.1067238 3.8695662 0.23087502
5.1305556 3.8652976 0.23313254
5.1000118 3.8815536 0.23536915
5.0798593 3.8985915 0.23997593
5.0568705 3.9028006 0.23434138
5.0179749 3.9179566 0.23672575
4.983778 3.9345515 0.2445513
4.9832973 3.9418569 0.2452966
4.9726558 3.950882 0.24581659
4.9893117 3.955035 0.23832911
4.9597497 3.9685311 0.24156064
4.83706 4.0527296 0.25388712
4.9870377 4.0726461 0.2433098
4.7527432 4.0809994 0.25812417
4.7645607 4.0941949 0.25342798
5.0074153 4.1007819 0.24685556
4.8890452 4.1580911 0.25562173
4.8608632 4.1639681 0.25607675
4.8195105 4.1777477 0.26118881
4.6054544 4.1964192 0.26378137
4.6966391 4.2702346 0.26357234
4.2797518 4.3112326 0.27735078
4.3627453 4.3957491 0.27777964
4.2257028 4.4741254 0.28624624
2.2183454 -1.5342057 0.080071032
2.1538858 -1.5084976 0.077271044
3.2464941 -0.9067235 0.071834862
1.9237211 -0.64364928 0.12566668
1.8632839 -0.63948792 0.12946844
1.8767357 -0.63124549 0.12832314
1.9292148 -0.63607478 0.13011539
1.8869178 -0.62114537 0.12839609
1.8034781 -0.600591 0.14055151
1.8659277 -0.6076448 0.13105994
1.9401563 -0.6024732 0.13137537
1.9099076 -0.58480179 0.13036495
1.8593433 -0.56130272 0.14029187
1.8537002 -0.55332369 0.1395548
1.8628523 -0.54040051 0.13499874
1.8955513 -0.48535445 0.13570213
1.9209487 -0.48307124 0.13467199
1.9175602 -0.46304271 0.13807201
1.9143709 -0.45912397 0.13438886
1.9429625 -0.45665541 0.13482541
2.0483391 -0.43518841 0.13825965
1.9959201 -0.42534882 0.13709521
3.1748674 -0.27551422 0.11154151
3.1926095 -0.24304339 0.10991836
2.9273045 -0.22466888 0.11627042
2.9330034 -0.19835822 0.12210482
2.9430151 -0.19056897 0.11638647
2.9192827 -0.18668702 0.11618572
2.9265141 -0.18557526 0.1237511
2.9827857 -0.18194848 0.11587489
3.0143619 -0.17739801 0.12285936
3.097578 -0.17085573 0.11310488
2.9475923 -0.12739582 0.1190334
3.0373368 -0.11227688 0.12382996
3.1864979 -0.11545888 0.1110189
3.1755896 -0.10747985 0.11176485
3.1834919 -0.108382 0.1126551
2.9292057 -0.092243932 0.11998785
3.0415492 -0.091948226 0.12395746
2.9015296 -0.077636272 0.12173009
3.1643553 -0.074089639 0.12025923
2.889859 -0.050364617 0.13013977
3.035727 -0.052512221 0.12475306
2.8905194 -0.042894833 0.12852722
2.9751041 -0.046205629 0.1292277
2.9030466 -0.032269038 0.12557626
2.8869333 -0.026652057 0.13145614
2.8986726 -0.027993461 0.12806028
2.9187713 -0.021029409 0.12692159
2.936765 -0.015269563 0.12734854
2.9165337 -0.0083184782 0.12994128
2.9210503 -0.0034613002 0.12603873
2.9655375 -0.00030412187 0.13047934
3.12011 -0.00620957 0.12439954
2.890373 0.0021833782 0.12685007
2.9074948 0.0010838426 0.1281653
2.9304972 0.019722473 0.12539554
2.9543986 0.017620768 0.13156891
3.1448851 0.014742051 0.11898863
3.153646 0.010588601 0.12180907
2.9496062 0.026521949 0.12829465
2.9103451 0.033687416 0.13604009
3.028157 0.038789913 0.12889665
3.0831189 0.036165938 0.13093793
2.9563541 0.043997791 0.13136196
2.9982419 0.053033367 0.12950963
3.0166342 0.054282684 0.12614113
3.1315019 0.057796817 0.12979072
3.0573926 0.06534414 0.1325559
2.912385 0.075369433 0.1357289
2.9949298 0.078349531 0.13363975
3.0373466 0.075392693 0.13306934
3.1232312 0.075492442 0.12381935
2.9818392 0.085604727 0.12662584
3.1184542 0.082395881 0.12440246
3.1357348 0.087395087 0.12347358
2.9624388 0.10073341 0.12796289
5.618371 0.57736272 0.068218172
5.6222024 0.57281601 0.070527732
5.5871305 0.60239595 0.074562728
5.5628295 0.61628568 0.077869713
5.5235853 0.65255749 0.081688225
5.3792415 0.75602961 0.084618449
5.3438473 0.77599722 0.086883962
5.3188944 0.79445791 0.094746232
5.3007026 0.80385071 0.088995874
5.3362193 0.90417379 0.094014347
5.3432426 0.92305499 0.094627321
5.3996739 0.977678 0.099608541
5.5165424 0.9720903 0.09551847
5.5282393 0.9706611 0.093552887
5.4542999 0.99508065 0.092708349
5.4112811 1.0005486 0.1016528
5.4601564 1.0029904 0.09527874
5.3365469 1.0433171 0.10063165
5.333981 1.0593247 0.10553318
5.5261106 1.0511856 0.097733319
5.3513227 1.0681107 0.10076052
5.3669262 1.0716614 0.10403657
5.3451777 1.0997727 0.10747498
5.3685927 1.1366884 0.1093052
5.4126973 1.1881351 0.11107451
5.4169283 1.1979054 0.10440165
5.4379501 1.2125738 0.11137027
5.4490581 1.2192423 0.10914546
5.672596 1.2583677 0.10430706
3.2204783 1.3932153 0.18099546
3.2094085 1.4090967 0.18863076
3.2174895 1.4172219 0.18857592
3.2595172 1.4153205 0.18874043
3.2302508 1.421734 0.18662673
3.1963587 1.4375913 0.19139606
3.2341075 1.4371949 0.18905169
3.2467496 1.4367653 0.19149673
3.2928421 1.4602561 0.18301725
3.2845607 1.4793385 0.19272631
3.2932615 1.4787102 0.18816108
3.1387622 1.4995105 0.1944924
3.3205714 1.4985008 0.19245678
3.3172929 1.5145549 0.19311064
3.193778 1.5460085 0.1929335
3.2789745 1.5438123 0.19182444
3.2315447 1.5608448 0.19813645
3.0664132 1.5859743 0.19741172
2.9003382 1.6159583 0.20493448
3.1398568 1.610858 0.20023131
2.8391263 1.6332326 0.20939928
2.842896 1.645184 0.21208537
3.2013099 1.6459882 0.19525927
2.7797301 1.6507738 0.21465158
3.1987555 1.6599982 0.19539654
2.7350509 1.6696522 0.2138707
2.7406683 1.6707178 0.21835965
2.6883762 1.6887826 0.21990138
2.7895176 1.685724 0.21247321
2.9758139 1.6881664 0.20792925
3.0024209 1.6857433 0.20492578
2.660378 1.6946999 0.22257566
2.6433597 1.703356 0.21590239
2.6268468 1.7112294 0.2183643
2.9390132 1.713158 0.21377122
3.1481404 1.7146339 0.20047086
2.9282517 1.7202488 0.21069926
2.5991704 1.7353916 0.22369361
2.5967572 1.7430999 0.22034794
2.5930946 1.7812887 0.2210049
2.6182754 1.78546 0.2267502
5.1036706 3.0890899 0.20950097
5.0715923 3.0960004 0.20949692
5.0225391 3.1082435 0.20594233
5.0429177 3.1024766 0.20801669
5.0732288 3.1026857 0.20867795
4.9495974 3.1183949 0.21817166
4.9906955 3.1171956 0.21693736
5.0009069 3.1118209 0.21409005
4.9403272 3.1242054 0.21186775
4.9535179 3.1228802 0.21164614
4.9045534 3.1333382 0.21360081
4.8438239 3.1495287 0.22074419
4.858954 3.1425869 0.22165585
4.7992072 3.1565838 0.22409034
4.7953835 3.1601672 0.22443658
4.5644641 3.1998796 0.22610015
5.1140132 3.1935036 0.21679759
5.1307292 3.198374 0.2067591
4.4864593 3.2094865 0.2354607
4.5266376 3.2039065 0.23394281
4.6312723 3.208396 0.22576606
5.1378822 3.2005115 0.2094081
4.4953732 3.2154753 0.23706406
4.5242972 3.2107773 0.22783941
4.4456496 3.2259328 0.23768455
4.4575348 3.2253308 0.23074001
4.4612384 3.2243733 0.23443002
4.4756169 3.2225037 0.22909826
4.4979992 3.2210281 0.23666519
4.5127616 3.2209284 0.23607701
4.5232968 3.2297075 0.23552984
4.3993554 3.2381847 0.23639613
4.4199634 3.2350786 0.23150641
4.4650927 3.2368016 0.23718679
4.4757791 3.2332568 0.23763651
4.5316772 3.2331901 0.2333827
4.3458977 3.247077 0.23564762
4.3729172 3.2471375 0.23338991
4.4174805 3.2498581 0.23580176
4.4335408 3.2461421 0.23782974
4.4744811 3.2410326 0.23474574
4.4844618 3.2455616 0.23582447
4.262495 3.251529 0.23753232
4.3022861 3.2576778 0.23605424
4.3327966 3.2595961 0.23456687
4.3823662 3.2534056 0.23608112
4.4159832 3.250778 0.23785144
4.4257736 3.2515411 0.23330426
4.4878926 3.259604 0.2367844
4.3103123 3.2619705 0.23972374
4.3672614 3.2639124 0.23666304
4.373662 3.263942 0.23614573
4.3861265 3.2680171 0.23696339
4.4047246 3.2656713 0.2374801
4.4370251 3.2628484 0.2359311
4.4412785 3.2608838 0.23717946
4.4526272 3.2640114 0.23930043
4.4929981 3.2698402 0.23805332
4.2658014 3.273773 0.23868936
4.3219137 3.2780252 0.23787016
4.3562026 3.2744799 0.23973036
4.3893008 3.2774563 0.23722029
4.4392691 3.278445 0.23763549
4.4632959 3.270571 0.23790324
4.4827681 3.2763238 0.23888332
4.4939828 3.2741961 0.23740262
4.2843814 3.282881 0.23773319
4.3160696 3.2868562 0.24002361
4.336772 3.2833848 0.23799676
4.3778934 3.2876291 0.23835957
4.4162107 3.2884538 0.2369383
4.4365139 3.2854507 0.2395162
4.4507813 3.288301 0.23762745
4.4695787 3.2823477 0.23999339
4.4834337 3.2899354 0.23845774
4.4903569 3.2890558 0.23889029
4.5474796 3.2846482 0.2377761
4.2727289 3.294193 0.23832101
4.3428764 3.2949538 0.23747212
4.3567376 3.2962666 0.23922431
4.3859682 3.2937346 0.23808128
4.3930726 3.2961998 0.23764265
4.4176908 3.2902498 0.2395969
4.4200912 3.2912498 0.23961467
4.4373388 3.2937572 0.23706156
4.4473872 3.2908595 0.2374174
4.4798274 3.29844 0.23886281
4.5049639 3.2969396 0.23765671
4.5264602 3.2997999 0.23594606
4.5359731 3.2986996 0.23853654
4.5548558 3.2945542 0.23717314
4.5931144 3.2972717 0.23747319
5.147964 3.2986999 0.21555883
4.3220639 3.3090775 0.23763877
4.3336005 3.3040361 0.23836058
4.3654141 3.3050504 0.23749799
4.3716035 3.3002419 0.23792571
4.3990784 3.3053608 0.23483968
4.4020343 3.3066702 0.23762286
4.4370584 3.3078034 0.23831856
4.486146 3.3061955 0.23793948
4.5028658 3.3009443 0.23671633
4.5489206 3.3009994 0.23841417
4.5910163 3.3066866 0.23736614
4.6072979 3.3080311 0.23797303
4.6255116 3.3029196 0.23696226
4.2543917 3.3195689 0.24051112
4.2839022 3.3114791 0.23843712
4.3477836 3.3100753 0.23699516
4.3921189 3.313782 0.23720652
4.4358649 3.3150301 0.2371648
4.4574499 3.3182139 0.23622519
4.4783978 3.3153114 0.23795629
4.4841642 3.3177166 0.23784965
4.507894 3.3111396 0.23595923
4.5265851 3.3135438 0.23800296
4.547637 3.3135233 0.23810029
4.5565901 3.3141787 0.23832887
4.5633392 3.3159359 0.23751742
4.5772901 3.312748 0.23885429
4.6172523 3.3169584 0.23814207
4.3545218 3.326648 0.23770493
4.3885665 3.3240781 0.23655623
4.3904057 3.3260171 0.23812008
4.4268246 3.3250904 0.23842549
4.4389672 3.3210137 0.23547262
4.4413996 3.328845 0.24003226
4.4611692 3.328728 0.23622972
4.4966993 3.3267431 0.23996896
4.5038595 3.3210113 0.23749709
4.5212679 3.3245859 0.24104708
4.5350189 3.3273027 0.23901427
4.5664477 3.3251493 0.23791325
4.6016154 3.3250563 0.23792136
4.6197805 3.3276024 0.23838586
4.2131071 3.3344443 0.24279243
4.3044395 3.3327146 0.23996234
4.3800416 3.3330991 0.2396819
4.4114733 3.3362832 0.23639065
4.455946 3.3371322 0.23621696
4.4979172 3.3314497 0.23833674
4.5170345 3.3331375 0.23866194
4.5228086 3.3395193 0.23735398
4.5738578 3.3354132 0.23884511
4.6938238 3.3346879 0.23638505
4.3512321 3.3497171 0.24026173
4.4137807 3.3421128 0.23758727
4.4522581 3.3455775 0.23713148
4.4760075 3.3470168 0.23908842
4.4859695 3.3431509 0.23683101
4.5173087 3.3480482 0.2384764
4.5278807 3.341836 0.23944014
4.5438786 3.3405898 0.23928142
4.5558672 3.3413713 0.23967946
4.571393 3.3435016 0.23853785
4.5935626 3.3456285 0.2379086
4.6259847 3.3446572 0.2386685
4.6427178 3.3414328 0.23728311
4.3827434 3.3572195 0.23918933
4.4090934 3.3569686 0.23706108
4.4286942 3.3570311 0.23892552
4.4386892 3.3542249 0.23614633
4.4456367 3.3588631 0.23881274
4.4658613 3.3516891 0.24139702
4.4767098 3.3581066 0.23690331
4.494833 3.3538117 0.23844731
4.5078564 3.357455 0.23986936
4.5331607 3.3529911 0.23906559
4.54458 3.3505902 0.23790747
4.5786095 3.3546612 0.23816425
4.5897117 3.35271 0.2384991
4.5955977 3.3502359 0.23867232
4.6835957 3.3563073 0.23710936
4.3970885 3.3695006 0.23836923
4.402997 3.3641126 0.23795426
4.4329767 3.3611372 0.23767269
4.4444332 3.3631573 0.23802024
4.466794 3.36375 0.23693466
4.4790225 3.3631508 0.23817843
4.5250297 3.3619945 0.23788363
4.5335927 3.3679552 0.23725724
4.5479889 3.3680317 0.23683339
4.5576525 3.3699989 0.23953086
4.5751333 3.3632462 0.23826116
4.5963511 3.3643901 0.23697621
4.6004443 3.3628626 0.24040252
4.6169047 3.3646247 0.23838526
4.640296 3.3634214 0.2388702
4.6543407 3.3661604 0.23724627
4.3950596 3.3701978 0.23809594
4.4312291 3.3762701 0.2400502
4.4578505 3.3724461 0.23875719
4.4776735 3.3789709 0.23723531
4.5119419 3.3786128 0.23947543
4.5323529 3.3751752 0.2374782
4.6355166 3.3739235 0.23798943
4.6403947 3.3787949 0.2383557
4.3869572 3.3804591 0.23924476
4.4228511 3.3827722 0.23765403
4.451364 3.3878903 0.23730701
4.4784837 3.3805003 0.23836863
4.486383 3.38661 0.2374112
4.5008922 3.3849423 0.23622853
4.5295401 3.3841074 0.23668486
4.5387864 3.389791 0.23460644
4.5463376 3.3860099 0.23812908
4.5705342 3.3819928 0.23813152
4.5872583 3.3866587 0.23840731
4.5972004 3.3837647 0.23649198
4.6048384 3.3869381 0.23894542
4.6378145 3.3807261 0.23949295
4.6407514 3.3864574 0.23691177
4.6539416 3.3846149 0.23874086
4.6762896 3.3852279 0.23789293
4.7039957 3.3821645 0.23825872
4.3371935 3.3914101 0.24175274
4.426868 3.3999753 0.23820454
4.4834285 3.3926511 0.23788792
4.5196657 3.3910115 0.23530203
4.5363708 3.3909061 0.23862088
4.5542202 3.3950119 0.23705673
4.5682287 3.3970966 0.23648661
4.6052532 3.3933089 0.23763525
4.6296082 3.3969731 0.24069887
4.6612959 3.3956728 0.23825842
4.6721306 3.3929632 0.23866856
4.9046054 3.3986824 0.23219812
4.3588247 3.4061098 0.24128634
4.4364529 3.4006796 0.238805
4.4841332 3.4039562 0.23660022
4.505815 3.409755 0.23839706
4.5237627 3.4006352 0.23758477
4.5454011 3.4039271 0.23723704
4.55512 3.4005015 0.23784202
4.5700846 3.4020057 0.23733056
4.58494 3.4008708 0.23550904
4.5935187 3.4024563 0.23668152
4.6287708 3.406199 0.23796499
4.6432767 3.4048645 0.23929864
4.6562691 3.4031372 0.23753589
4.6855187 3.4089668 0.23859596
4.698174 3.4040606 0.23732537
4.7043872 3.4013262 0.23945361
4.4764233 3.4178686 0.23822922
4.5046372 3.4177525 0.23847544
4.5322309 3.4135792 0.23865795
4.5443506 3.4171286 0.23754936
4.5519505 3.4125645 0.23663217
4.5678372 3.4166777 0.238612
4.5725088 3.4148803 0.23661739
4.5842857 3.4118097 0.23883855
4.5970788 3.4138093 0.23831373
4.6030812 3.415252 0.23731583
4.6134257 3.4156609 0.23881572
4.6312056 3.4198871 0.23937529
4.6487961 3.4148433 0.23435515
4.7036729 3.4111979 0.23888397
4.7110462 3.4185531 0.23984587
4.8478527 3.4184186 0.23561877
4.2334933 3.4242828 0.2455532
4.4818516 3.4239373 0.23960155
4.5302691 3.4212489 0.23919821
4.5473914 3.4229648 0.23949462
4.5663753 3.4262667 0.23769122
4.6010203 3.4223073 0.23817807
4.6401038 3.4268959 0.23826844
4.6575336 3.429039 0.23860306
4.6643219 3.4278774 0.23936313
4.6932716 3.4296587 0.23827744
4.7246857 3.4255059 0.23946929
4.7528334 3.4271014 0.23861176
4.4977179 3.4364247 0.23875892
4.5454979 3.4345336 0.23740524
4.5629506 3.4372919 0.23864359
4.5899448 3.436964 0.23934978
4.6131988 3.4378884 0.23914635
4.6435299 3.4376059 0.2388379
4.6525354 3.4371693 0.24082851
4.6935592 3.431715 0.23954052
4.7081742 3.4312637 0.23796618
4.7128153 3.4311218 0.23930991
4.7480707 3.4319494 0.238778
4.7891083 3.4366989 0.23746151
4.8478651 3.4331267 0.23636895
4.4742351 3.4476535 0.24044901
4.5288687 3.440587 0.23783314
4.5542612 3.4440217 0.23807532
4.5649981 3.4452596 0.23881674
4.5898523 3.447675 0.23821801
4.5920525 3.4417744 0.23863196
4.6154776 3.4472952 0.23786128
4.6585388 3.441483 0.23642766
4.6652098 3.446749 0.23949498
4.6773367 3.4403377 0.23821896
4.704565 3.4483817 0.23741168
4.7172546 3.4495597 0.23840296
4.7300768 3.4482076 0.23929757
4.7556067 3.4420998 0.23792917
4.767797 3.4477918 0.23861587
4.7959471 3.4494314 0.23604786
4.8232021 3.4477639 0.23679292
4.8369036 3.4431927 0.23658186
4.4950991 3.458962 0.238873
4.5161266 3.4565609 0.23849988
4.544713 3.454272 0.24000341
4.6115193 3.4581492 0.23613119
4.6297827 3.4522223 0.2381795
4.6545706 3.452116 0.23922122
4.6668005 3.4582772 0.23882991
4.7124114 3.4515235 0.23759896
4.7205739 3.4537144 0.23768026
4.7337637 3.4552608 0.23882604
4.4502354 3.4607944 0.24262232
4.5236959 3.4618802 0.23935199
4.5507259 3.4683764 0.23926044
4.5736527 3.4642315 0.23770601
4.5826259 3.4690216 0.2368986
4.6075263 3.4604855 0.23749298
4.6166821 3.4646122 0.23939735
4.6527267 3.4659584 0.237764
4.673326 3.4621544 0.23707914
4.6846857 3.4685092 0.23774463
4.7045546 3.4660206 0.237459
4.719646 3.4677224 0.23714876
4.7401676 3.468462 0.2392568
4.7585816 3.4613991 0.23776746
4.7780609 3.4636161 0.2373516
4.7845459 3.4658964 0.23702401
4.7996206 3.4654279 0.23748475
4.8221936 3.4667952 0.23781008
4.40484 3.4767292 0.24263293
4.5675311 3.4742267 0.23823327
4.6732941 3.4755769 0.23635221
4.6992683 3.4766011 0.23544258
4.7082882 3.4770958 0.23652309
4.7395244 3.4789784 0.23717278
4.7504187 3.4702697 0.23734403
4.774641 3.4772236 0.23712641
4.8159828 3.4768219 0.2385031
4.8474779 3.4728007 0.23724729
4.5709505 3.4821129 0.23760748
4.6060729 3.48314 0.23805416
4.638423 3.4844337 0.23703402
4.6511602 3.483886 0.23794997
4.6720266 3.4826663 0.23692352
4.7263231 3.4843981 0.23763376
4.735127 3.4879248 0.23750859
4.7449532 3.4844611 0.23809934
4.7611842 3.4877086 0.24127293
4.8160462 3.4848254 0.23913568
4.8379226 3.4839437 0.23861068
4.8488717 3.4879298 0.23894393
5.1370592 3.485368 0.22759324
4.5729222 3.4968586 0.23830503
4.6239114 3.4932992 0.23763466
4.6652884 3.4937654 0.23538333
4.6746278 3.4962831 0.2377038
4.6962218 3.4963298 0.23642135
4.7008219 3.4993796 0.23786306
4.7368093 3.491677 0.23807853
4.7501655 3.4995029 0.23737532
4.7716155 3.4965768 0.23738915
4.7932239 3.4909778 0.23519439
4.8014193 3.4928322 0.23867184
4.8545685 3.4930961 0.23812038
5.0403399 3.4973488 0.22884291
4.5911961 3.5091586 0.23858756
4.6850328 3.504374 0.23672158
4.697845 3.50316 0.23757368
4.7039094 3.5045516 0.23655254
4.7947598 3.5062828 0.23819798
4.8307462 3.506062 0.23757809
4.8790579 3.5007722 0.23821443
4.9076066 3.5044804 0.23584187
4.6442585 3.5162225 0.23718864
4.6534657 3.5136907 0.23695087
4.6943421 3.5189064 0.23846132
4.7247276 3.5154111 0.23762399
4.7461052 3.5197611 0.23710376
4.7557049 3.5134349 0.23650718
4.7783327 3.5116 0.23900294
4.7807231 3.5145636 0.23908114
4.8079438 3.5130343 0.23769301
4.8338871 3.5160756 0.23930609
4.8444624 3.5164669 0.23928851
4.8549156 3.5156763 0.23902488
4.8619452 3.5141113 0.23768204
4.9107633 3.5100524 0.23638505
4.6606417 3.5271173 0.23772997
4.7340188 3.5255852 0.23856848
4.7549891 3.5298114 0.23822516
4.7600102 3.525929 0.23715359
4.8069773 3.5201669 0.23797083
4.8130469 3.529321 0.23925453
4.8325548 3.5241365 0.2386753
4.8741331 3.5270674 0.23746806
4.9030776 3.5202503 0.23229557
4.6088772 3.5333178 0.23966455
4.6776509 3.5312781 0.23784322
4.6812806 3.5338368 0.23871267
4.6977882 3.5353925 0.23639059
4.7091351 3.5351534 0.23739344
4.7105503 3.5357552 0.24117839
4.7374964 3.5345576 0.23640621
4.7647405 3.5306206 0.23642278
4.7840834 3.5323787 0.23904401
4.8147979 3.5310788 0.23894352
4.6341724 3.541476 0.23884386
4.6559172 3.5460024 0.23792267
4.7082772 3.5471661 0.23760241
4.7175136 3.5412955 0.24002486
4.7220984 3.5464847 0.23855627
4.7365232 3.543201 0.2386747
4.7694454 3.5439794 0.23731858
4.7716432 3.5475614 0.23763895
4.6318898 3.5588403 0.24055094
4.6856251 3.5532417 0.2379697
4.6938419 3.5590103 0.23844022
4.7258725 3.5616944 0.23749989
5.2367363 3.78724 0.24021143
5.251524 3.7926874 0.24065226
5.2044439 3.8234704 0.23871511
5.1514411 3.8382804 0.24177158
5.1642118 3.8472774 0.23768353
5.1412621 3.862745 0.24013948
5.105463 3.8766665 0.239986
5.1195059 3.8764932 0.24106079
5.0625801 3.8976746 0.24398988
5.0240178 3.9165041 0.24750882
5.0370355 3.924984 0.24840015
5.0040479 3.9423614 0.24704468
4.8975668 4.0031924 0.2615872
4.8582048 4.0266495 0.26409602
4.8799372 4.027761 0.26013619
5.1414986 4.024416 0.24647969
4.9155025 4.0388875 0.26268214
4.8123932 4.0418525 0.26563406
4.8330369 4.043951 0.26237911
4.7827034 4.0639963 0.26438951
5.0060358 4.066843 0.25887364
4.8086243 4.0718365 0.25920445
4.7817802 4.082459 0.26779157
4.7472305 4.0981517 0.26620466
4.7370124 4.1023421 0.27038282
4.692555 4.1597648 0.27219224
4.6495495 4.1754508 0.27079242
4.7771568 4.2022014 0.2664333
4.722321 4.2325897 0.27225423
4.4347796 4.3099279 0.28108406
3.2378957 -1.0451092 0.076927602
3.2337761 -0.94687241 0.08499819
1.9170026 -0.64358383 0.14108485
1.9355187 -0.6497407 0.14065319
1.9812765 -0.64598846 0.14087838
1.8296144 -0.589261 0.14167434
1.8537408 -0.58798677 0.14950252
1.9103819 -0.58744192 0.14339167
1.8406051 -0.57555532 0.14183736
1.8631047 -0.56142169 0.14131796
1.915048 -0.53402162 0.14566982
1.8738701 -0.5137893 0.14870006
1.8727044 -0.50943404 0.15166992
1.8826418 -0.505041 0.14515758
1.8830638 -0.48986191 0.14633042
1.8963834 -0.48325157 0.14775354
2.0381107 -0.40626198 0.14923513
3.1383224 -0.24049981 0.12526107
3.2026217 -0.24127474 0.12183672
3.131978 -0.2150014 0.11997348
3.1841331 -0.21452004 0.11706585
3.1350968 -0.2036285 0.12644958
2.9797308 -0.19258104 0.12362951
3.1450133 -0.19900432 0.12410998
3.0095525 -0.18435785 0.12716061
2.9480391 -0.17970626 0.12649769
3.2053928 -0.17487873 0.12100285
2.9710541 -0.16509791 0.12765354
3.0014117 -0.14883319 0.12713903
3.18822 -0.14596826 0.12100047
3.0044799 -0.12768444 0.13123977
2.9905505 -0.10253353 0.12789661
3.1739728 -0.089567475 0.12292671
3.0946121 -0.068972088 0.12646037
3.0629141 -0.042325281 0.13618863
3.0946915 -0.038581796 0.13608575
2.9190583 -0.015118362 0.14160025
3.1018465 -0.019680705 0.13186216
3.1102052 -0.011615578 0.13739765
2.8787844 -0.0063020522 0.13600427
3.1353326 -0.00025874155 0.12858015
2.9535878 0.008969184 0.14371759
3.1291599 0.018968362 0.13869554
2.9764719 0.039624162 0.13910872
2.9845798 0.048940107 0.14392024
2.9915795 0.04393987 0.14144582
3.1434946 0.046986707 0.13313776
2.9395347 0.057077453 0.14654452
3.0970728 0.064351171 0.14153045
3.1058636 0.064271778 0.13691205
3.0240688 0.074994281 0.13936985
3.0556414 0.070370205 0.13944674
3.0689087 0.073090747 0.14185101
3.0901082 0.075769022 0.14263904
2.9738822 0.088950671 0.14108002
5.7008567 0.5197953 0.072302043
5.6351566 0.56284016 0.079009771
5.6012373 0.59266275 0.08075285
5.5620317 0.62373459 0.091242015
5.5269146 0.64625031 0.086421013
5.5349226 0.64275175 0.09185338
5.5084743 0.66791594 0.094116807
5.487885 0.67918068 0.089292884
5.49682 0.67577994 0.087807953
5.4641428 0.69333434 0.094722748
5.4556155 0.70126992 0.090811372
5.4334102 0.7213251 0.094566166
5.3727441 0.77628934 0.10218227
5.2857623 0.82731962 0.10751802
5.2942133 0.82614887 0.10201341
5.3641944 0.92762637 0.104276
5.3365169 0.93660516 0.11213827
5.3552227 0.94172108 0.10884732
5.5382113 0.95907038 0.099994123
5.5526891 0.96354103 0.10396236
5.4804845 0.99553776 0.10593176
5.4117451 1.0030583 0.10596889
5.4268608 1.0038803 0.10377324
5.4311638 1.0068852 0.10730106
5.4336829 1.0131711 0.11124551
5.4825292 1.0145354 0.10615438
5.3823953 1.0316572 0.1119929
5.3259883 1.0666655 0.11665654
5.3360581 1.0678351 0.10935754
5.3577895 1.1233381 0.11603469
5.3850083 1.1217928 0.11676437
5.36659 1.1576527 0.11459684
5.3717594 1.1500094 0.11402482
5.3798003 1.1622751 0.12054515
5.6432967 1.2532921 0.10996157
3.1737776 1.3847216 0.19277674
3.2080264 1.4031187 0.19970256
3.2302959 1.4045436 0.19719428
3.266397 1.4066032 0.19631118
3.2033119 1.4169881 0.19777834
3.232877 1.4228038 0.19586337
3.2022204 1.459195 0.19873017
3.240592 1.4727542 0.20296717
3.3070407 1.4749179 0.19956154
3.3422899 1.4713078 0.19467479
3.1230171 1.5165759 0.20005834
3.3072565 1.5121289 0.19608223
3.1158233 1.5282623 0.20233071
3.2017283 1.5681797 0.20144933
3.2772601 1.5601277 0.19902438
3.1287777 1.5790938 0.21168149
3.1070237 1.6058849 0.21117586
3.2378995 1.610777 0.20622873
3.0388622 1.6208466 0.21417993
3.2064574 1.6224597 0.2087189
2.8316767 1.6392897 0.22330266
2.8818035 1.6357255 0.21975756
3.2144678 1.6389164 0.21259445
2.7911274 1.6544963 0.22344989
2.8044169 1.6522585 0.22209615
3.0069189 1.6576211 0.21192139
2.7695272 1.6651835 0.22262377
2.8488081 1.6648049 0.22390538
2.7368486 1.6706473 0.22721809
2.7052834 1.6870192 0.2274375
2.9758461 1.6909361 0.21705014
3.1358237 1.7283341 0.21368921
3.1168303 1.7420133 0.219993
2.5879145 1.7740943 0.2369352
2.6158597 1.777764 0.23746902
3.0728297 1.8015705 0.22053879
5.0863748 3.0897748 0.21822906
5.0648847 3.0992353 0.21698099
5.0981183 3.0960038 0.21804649
5.0371041 3.104939 0.21734709
5.0898314 3.1086032 0.21913928
5.0212722 3.1103771 0.21983856
5.0535994 3.1133425 0.21596479
5.089056 3.1146185 0.22330076
4.9131279 3.128185 0.22661036
4.9418373 3.1274483 0.22128421
4.9537816 3.1237369 0.22803611
4.9715533 3.1234143 0.22587895
4.9871831 3.1212952 0.21827108
4.8935375 3.1384761 0.2222997
4.9049888 3.1360831 0.22961068
4.9236741 3.1386306 0.22994012
4.857945 3.1498752 0.2326507
4.8650866 3.1428416 0.23099768
4.8149319 3.1569533 0.23038805
4.7499957 3.163965 0.2360723
4.7551479 3.1676269 0.22733837
4.7635522 3.1677425 0.23196012
4.7772603 3.1639762 0.23288447
4.8281436 3.1651905 0.23439026
5.1053538 3.1614776 0.22022361
4.6768923 3.1762354 0.23633713
4.7079105 3.1797023 0.23772311
4.7175455 3.1713281 0.23638457
4.7259483 3.1762552 0.23600584
4.7469497 3.1726079 0.23162442
4.8402128 3.1788816 0.22926903
4.627892 3.1859093 0.23385429
4.6413679 3.1871567 0.2371738
4.6662111 3.1891544 0.23607463
4.674602 3.1847064 0.23631465
4.699615 3.1875942 0.23513538
4.7168355 3.1864889 0.23491162
4.5789261 3.1957603 0.23427731
4.5878358 3.1928601 0.2353757
4.5971875 3.1992822 0.24046546
4.623632 3.1976969 0.23774725
4.630877 3.1996183 0.23728889
4.6400189 3.1956413 0.23553187
4.6661572 3.1971905 0.23600394
4.7097254 3.1923859 0.23852772
4.5379744 3.2085993 0.23763186
4.5435462 3.2014544 0.23719329
4.5546699 3.2076061 0.23589045
4.5776696 3.2051051 0.23937809
4.5973272 3.204802 0.23647493
4.6079006 3.2014234 0.23651224
4.6238618 3.2045879 0.23773557
4.6412988 3.2000515 0.23804295
4.656538 3.2058458 0.24019688
4.6607304 3.2018547 0.23858011
4.7161956 3.2038915 0.23963416
4.4719725 3.2175486 0.23984641
4.5498824 3.2134199 0.24036568
4.5638676 3.2141562 0.23813659
4.5749364 3.2153895 0.23690373
4.5822902 3.2138958 0.23950034
4.6157012 3.2145884 0.23910224
4.6231165 3.2159164 0.23793471
4.6337628 3.215719 0.24118561
4.6698666 3.2180135 0.23916256
4.5070982 3.2266076 0.24067134
4.5132179 3.2255793 0.23839575
4.5263844 3.2211361 0.23660535
4.6070418 3.2276363 0.2408517
4.6317096 3.2247579 0.24017978
4.6770983 3.2258792 0.24058479
4.6836915 3.225174 0.24071985
4.6903777 3.2239156 0.24121761
4.7305284 3.2233274 0.24017644
5.1176233 3.2239327 0.22263288
4.520268 3.2305434 0.23846573
4.5314627 3.2330461 0.23914474
4.5564518 3.2350552 0.23991811
4.5767655 3.2390099 0.23858035
4.5849576 3.2340784 0.2395432
4.6220789 3.2341208 0.23993653
4.7138991 3.236495 0.24133795
4.7668772 3.2393534 0.23953795
4.8158059 3.2397568 0.23802447
4.4355989 3.2489557 0.241548
4.4772758 3.247752 0.2394976
4.5585508 3.2414424 0.23856652
4.5773835 3.2475426 0.23819697
4.5842199 3.245167 0.23798901
4.6421399 3.2450943 0.24038297
4.678041 3.2423859 0.24182194
4.6874633 3.2415977 0.24056244
4.6953163 3.2439466 0.23981118
4.7162223 3.243958 0.24000788
4.7338414 3.2477174 0.24013048
4.7520237 3.2498357 0.23893791
4.8492761 3.2446527 0.23475677
5.1343575 3.2427034 0.22506088
4.5106869 3.2558413 0.23981869
4.5309057 3.257755 0.23879784
4.5439882 3.2544098 0.2384848
4.5764995 3.2537627 0.23914939
4.6179318 3.2587211 0.23960119
4.6283565 3.2505322 0.24157125
4.6370912 3.2563193 0.24024457
4.6485496 3.2589726 0.23862469
4.6680145 3.2526579 0.23986489
4.7367415 3.25809 0.23926133
4.7638373 3.258621 0.23939604
4.7729344 3.2532246 0.23813355
4.781002 3.2564631 0.23852545
4.7910657 3.2579494 0.2393201
4.8088021 3.2561405 0.23482102
4.5182762 3.2655151 0.23970449
4.530149 3.2676954 0.24000567
4.5687571 3.2668638 0.24029297
4.579494 3.260565 0.24114215
4.5806561 3.2631171 0.23995787
4.5962896 3.2618175 0.23902375
4.6403012 3.2605846 0.23946738
4.6864357 3.2666571 0.23993176
4.7060294 3.2656181 0.23950893
4.729423 3.2646949 0.23665822
4.7342634 3.2656317 0.24028075
4.7606559 3.2684574 0.23924589
4.785862 3.2603137 0.2389738
4.3772202 3.2755868 0.24391013
4.5192575 3.2743716 0.24037081
4.5298448 3.2718539 0.23885363
4.5347672 3.2738299 0.23963457
4.5509 3.2792647 0.23898
4.586462 3.2771699 0.23789924
4.5957646 3.2753842 0.23907632
4.6010795 3.2763922 0.238527
4.6215024 3.2720363 0.24007201
4.6384826 3.277597 0.23898727
4.6533685 3.2741687 0.23926908
4.683208 3.2735894 0.23964131
4.6956844 3.2733347 0.23641819
4.744019 3.2759869 0.23949516
4.759459 3.2788141 0.23863131
4.767694 3.2706938 0.23742777
4.5350499 3.2872767 0.23953086
4.5749598 3.2854254 0.23919415
4.5962524 3.2843149 0.23853415
4.6368971 3.2811365 0.23842829
4.6550932 3.2873538 0.23755378
4.6616654 3.2840154 0.24062198
4.673697 3.2845163 0.23879951
4.7090416 3.2858071 0.238415
4.7209644 3.2873983 0.23986024
4.7578421 3.2831757 0.23998624
4.7733274 3.2839539 0.23897308
4.7835579 3.2815201 0.24047339
4.7959328 3.2882218 0.2376737
4.8544888 3.280885 0.22999728
4.8677931 3.2800004 0.2323277
4.5099869 3.2974336 0.24141884
4.5851541 3.2917523 0.23888654
4.6113868 3.2991133 0.23880452
4.6657248 3.294961 0.23866564
4.6743879 3.2962985 0.23870754
4.6888552 3.2996697 0.23628396
4.6959262 3.2936101 0.23946124
4.7162685 3.2935805 0.23946398
4.7243018 3.2904427 0.2400251
4.735477 3.2985356 0.24037665
4.7410507 3.2975876 0.24292755
4.7633553 3.2946973 0.23884755
4.7765307 3.2932658 0.2418173
4.7888865 3.2912922 0.2410484
4.8032298 3.2917991 0.24112749
4.5503469 3.3034589 0.2400198
4.6085386 3.3008573 0.23773336
4.6154819 3.303575 0.23872101
4.62784 3.3036969 0.23848909
4.6487226 3.3074796 0.23948121
4.6662259 3.3040409 0.24423045
4.7123075 3.3032422 0.23920739
4.7397642 3.3008809 0.24138707
4.7426615 3.3079515 0.2385059
4.7775192 3.3038981 0.24068719
4.8239517 3.3079159 0.24006343
4.8439775 3.3080473 0.24020147
4.6658378 3.3128536 0.23872292
4.6713076 3.3129592 0.24040222
4.6836782 3.3157809 0.23964775
4.6909432 3.3111706 0.24121696
4.7233896 3.314748 0.24003255
4.7441592 3.3120792 0.24076182
4.7566113 3.3104448 0.24038225
4.7765336 3.3158245 0.23952937
4.7949562 3.3144374 0.24028152
4.8106937 3.3143687 0.24188012
4.8289585 3.3197601 0.23946434
4.8434577 3.3181784 0.2389614
4.6272874 3.3271728 0.23959392
4.6417317 3.3207593 0.24072427
4.6676111 3.3235545 0.23899251
4.6772809 3.3249199 0.24027967
4.7097769 3.3272369 0.24035656
4.7318611 3.3236372 0.24064434
4.7423353 3.328963 0.23795366
4.7760749 3.3252847 0.24063343
4.7985811 3.3271217 0.24011904
4.818758 3.3260889 0.24041587
4.8414936 3.3251975 0.24153358
4.863802 3.3212025 0.23729372
4.9031982 3.3250508 0.2387802
4.9208207 3.3208678 0.23877686
4.5925083 3.330483 0.23994499
4.6276631 3.3309882 0.23929876
4.6365962 3.3383062 0.23901415
4.6416397 3.3322892 0.23946977
4.7291384 3.3363149 0.23909456
4.7447224 3.3377645 0.24088794
4.7539597 3.3384023 0.23908406
4.7813058 3.3365309 0.23887652
4.8318954 3.3358338 0.23896134
4.8533192 3.3372984 0.23870111
4.8814883 3.3354695 0.23948008
4.8993621 3.3374128 0.2389124
5.1483107 3.3375883 0.22760975
4.6205368 3.3426495 0.23965985
4.6502948 3.3421657 0.24028635
4.663435 3.3462696 0.23891765
4.6857948 3.3430095 0.24062777
4.6956072 3.3445239 0.24025309
