# .PCD v0.7 - Point Cloud Data file format
VERSION 0.7
FIELDS x y z
SIZE 4 4 4
TYPE F F F
COUNT 1 1 1
WIDTH 1467
HEIGHT 1
VIEWPOINT 0 0 0 1 0 0 0
POINTS 1467
DATA ascii
5.1825743 3.8388987 -0.51980877
5.1633549 3.8482432 -0.51799864
5.1585202 3.854768 -0.51374775
5.1605735 3.8517194 -0.51393044
5.1231642 3.867995 -0.51870477
5.2140241 3.8717465 -0.51577997
5.0762515 3.8846216 -0.51756942
5.1091805 3.8803713 -0.51067305
5.1633606 3.8867671 -0.51249486
5.1431446 3.8955133 -0.51439518
5.0628424 3.9003119 -0.51282406
5.0424714 3.9158289 -0.51240152
5.0670352 3.9107659 -0.51115453
5.0272069 3.9263453 -0.51125652
5.0800648 3.9294372 -0.51915997
5.1635566 3.9207318 -0.51662648
5.2195244 3.9224279 -0.51870912
5.0256624 3.9468422 -0.51880282
5.0636778 3.9421115 -0.51668119
5.1418924 3.9444802 -0.51410431
4.9838371 3.9547346 -0.51288962
4.9619951 3.9693701 -0.51004964
5.1039233 3.9626253 -0.51529413
5.0687766 3.9745448 -0.51649469
4.900218 3.9892654 -0.51634854
5.0570364 3.9856465 -0.5164935
4.5932751 4.2289824 -0.51142132
4.6030469 4.2641525 -0.51978189
4.4941239 4.2754622 -0.51076525
1.8639218 -0.63841319 -0.50496912
1.8465325 -0.60161954 -0.50531304
1.8709462 -0.57924646 -0.50496131
1.8409535 -0.52635312 -0.50811231
1.8775865 -0.51581132 -0.5056513
1.8821863 -0.49507973 -0.50519854
1.9280006 -0.44593495 -0.50969899
2.0137665 -0.42948267 -0.50469941
3.1795123 -0.26119727 -0.50652051
3.1938162 -0.19156392 -0.50486076
2.9884334 -0.18325078 -0.50081223
3.1787782 -0.18533379 -0.50487053
3.1870749 -0.18545417 -0.50484967
3.1818852 -0.16193201 -0.50514925
2.9860995 -0.14719102 -0.50039989
2.986186 -0.11603705 -0.50656915
3.123266 -0.098104604 -0.50258207
3.1137948 -0.074365832 -0.508847
3.1600561 -0.070884228 -0.50817102
3.1597569 -0.063772738 -0.50272048
2.9622188 -0.046432097 -0.50377452
3.1346064 -0.037516676 -0.50850689
2.9848471 -0.029885199 -0.50186664
2.865267 -0.013845484 -0.50931597
2.9462726 -0.013413394 -0.5030598
2.8951058 -0.0092566824 -0.50379407
2.9181626 0.0039199013 -0.50573212
2.9253147 0.007909501 -0.50288415
2.9759796 0.023067104 -0.50298053
2.9531281 0.033701397 -0.50420201
2.9774261 0.039058879 -0.5039199
3.0116503 0.035703782 -0.50674063
2.9881902 0.048140511 -0.50490874
2.9342997 0.057243999 -0.50712436
3.015177 0.067916647 -0.50640553
3.0244427 0.069702618 -0.50819415
3.0377522 0.068721823 -0.50868547
3.0757706 0.077313319 -0.50434732
3.0103083 0.086444519 -0.5010674
5.6190324 0.59932429 -0.50908792
5.5277619 0.66718805 -0.504489
5.4457798 0.72768575 -0.50460446
5.4552422 0.72208256 -0.50186282
5.4234037 0.74732733 -0.50580776
5.4331355 0.74219602 -0.50178736
5.3854094 0.77523118 -0.50491035
5.3625612 0.79713392 -0.50030643
5.2896209 0.84215969 -0.50436991
5.2613301 0.87216246 -0.50257766
5.3058271 0.93656546 -0.50147235
5.3139238 0.94855368 -0.5086152
5.3352289 0.96826959 -0.50136435
5.3397007 1.1231564 -0.5071581
5.3490853 1.1526128 -0.50011194
5.362679 1.1760854 -0.50348276
5.3772731 1.1833479 -0.50998706
5.5918369 1.2534099 -0.50551486
5.5934501 1.2627182 -0.50993896
5.6116939 1.2631845 -0.50879771
3.2362561 1.3984908 -0.50117904
3.2147994 1.404494 -0.50313914
3.2214236 1.4086522 -0.50417042
3.2613373 1.4177526 -0.50464344
3.2023702 1.4273779 -0.50097567
3.2450225 1.4400035 -0.50147724
3.2677243 1.4542173 -0.50136334
3.3521514 1.4655966 -0.5019176
3.2205472 1.4746211 -0.50548327
3.1723628 1.4991865 -0.50851876
3.3162572 1.5149881 -0.50723773
3.1319671 1.5312171 -0.50704265
3.137507 1.5655211 -0.50838625
3.0729928 1.5727806 -0.50388747
3.0275428 1.6172136 -0.50995731
3.0550158 1.615657 -0.50474381
3.012711 1.6311877 -0.50613385
3.0001168 1.6423433 -0.50310141
3.0198977 1.6410052 -0.50263911
3.2242506 1.6401534 -0.50831991
2.8873153 1.6531657 -0.50136381
2.7507982 1.6651467 -0.50576907
2.7793281 1.6609997 -0.50479496
2.9806244 1.6651208 -0.50576717
2.7287462 1.6741097 -0.50620478
2.9652593 1.6789834 -0.5067113
2.974122 1.6730337 -0.50807917
2.6885324 1.6861212 -0.50349742
2.9659841 1.6846888 -0.50944215
2.6383333 1.6967589 -0.50487792
2.6213579 1.7074156 -0.50778884
2.653487 1.7031081 -0.50832587
3.1602685 1.7074827 -0.50330919
2.6053977 1.7176404 -0.50644034
2.5943406 1.7366369 -0.50171494
3.0923643 1.7847648 -0.50234246
3.089309 1.7923596 -0.50409114
5.2276015 3.7817292 -0.50491786
5.2015023 3.7935696 -0.50457495
5.2023644 3.8098621 -0.50463772
5.2915988 3.8129349 -0.50457013
5.1964669 3.8302302 -0.50200176
5.1292005 3.8482246 -0.50153565
5.3265071 3.8438056 -0.50129533
5.1952667 3.8542321 -0.50027406
5.1676774 3.8650756 -0.50787574
5.1245131 3.8855622 -0.5021643
5.2160277 3.8845532 -0.50642288
5.1712589 3.8947098 -0.5004999
5.1837502 3.8931487 -0.50943953
5.2284951 3.8984489 -0.50195181
5.0851941 3.9054787 -0.50785756
5.1171374 3.9068375 -0.50836289
5.1336474 3.9180474 -0.50972784
5.1910086 3.9167411 -0.50711185
5.0251794 3.93416 -0.50799984
4.5649438 4.2290912 -0.5057134
4.5141377 4.2478566 -0.50491482
1.9371638 -0.64213878 -0.49615404
1.9489429 -0.64811671 -0.49269575
1.8539727 -0.62800491 -0.49170455
1.8711227 -0.59309131 -0.49913388
1.8162445 -0.58148915 -0.49124527
1.8336992 -0.58709675 -0.49477389
1.8343751 -0.56794196 -0.49571279
1.8346447 -0.55615193 -0.49748477
1.8497114 -0.5597983 -0.49315983
1.8536167 -0.53381491 -0.49827358
1.871591 -0.52094775 -0.49701059
1.8548552 -0.51445609 -0.49706754
1.8674189 -0.51827741 -0.49951074
1.8682922 -0.49195975 -0.49593008
1.8795408 -0.49296209 -0.4953419
1.9022001 -0.45204923 -0.49002922
1.9199259 -0.44622597 -0.49149957
1.9487 -0.43362561 -0.49930558
3.1744459 -0.2575084 -0.49921852
3.009511 -0.23576701 -0.49296108
3.1972859 -0.22173445 -0.49476245
3.0091643 -0.19089986 -0.49506223
3.0103412 -0.1852991 -0.49132767
3.195852 -0.17976828 -0.49131775
2.9460735 -0.15620932 -0.49474278
3.0061264 -0.13437819 -0.49416676
2.9506505 -0.10063829 -0.49142948
2.9746881 -0.10735869 -0.49758184
2.9907289 -0.099530369 -0.49481946
3.157299 -0.086597614 -0.4968453
3.1569984 -0.057488319 -0.49407959
3.1412749 -0.048289724 -0.49951738
2.9527655 0.022640621 -0.4922424
2.9826279 0.049539756 -0.49170369
3.0051417 0.05910933 -0.49469268
3.1155078 0.066119961 -0.49177858
3.123632 0.061822355 -0.49761438
3.0697305 0.084054418 -0.49413517
3.0781643 0.084328592 -0.4977884
3.1051481 0.08613921 -0.49475345
3.0425997 0.10378763 -0.49202406
5.6740079 0.55957377 -0.49680841
5.632575 0.59383124 -0.49872386
5.6055655 0.62169659 -0.49407336
5.4907217 0.70321244 -0.49899241
5.3714728 0.79407418 -0.49718776
5.3556075 0.80183125 -0.49829844
5.3393774 0.81762326 -0.49122581
5.330595 0.82483357 -0.49112681
5.2857766 0.84817082 -0.49702364
5.2645054 0.86592191 -0.49209943
5.3682785 0.99691105 -0.49760261
5.3873601 1.0299108 -0.49319899
5.3989477 1.0277872 -0.49964198
5.4049697 1.0331286 -0.49391824
5.4347525 1.0323527 -0.49755329
5.3045621 1.0775348 -0.49946383
5.3454633 1.1443624 -0.49995172
5.3719144 1.1497232 -0.49579456
5.3521996 1.1534356 -0.49435392
5.360383 1.1697856 -0.49935576
5.3773074 1.2027237 -0.49042726
5.594842 1.2725806 -0.49100396
3.2419903 1.3902271 -0.49855953
3.2276063 1.4053543 -0.49534214
3.2479377 1.4022783 -0.49925581
3.2212284 1.418907 -0.49342063
3.204901 1.4384915 -0.49105877
3.1842618 1.4465652 -0.4951157
3.3463488 1.4451767 -0.49553105
3.2073936 1.467634 -0.49018949
3.1647873 1.4784045 -0.49520305
3.1773918 1.4848841 -0.49310064
3.0982575 1.539391 -0.49781954
3.300513 1.5421749 -0.49674666
3.1653411 1.5744113 -0.49990585
3.0837064 1.5959449 -0.49452367
2.8992293 1.6169387 -0.4913241
3.0205171 1.6166706 -0.49516276
3.0403388 1.6188692 -0.49718064
2.8934913 1.6290478 -0.49493736
3.2325556 1.621628 -0.49865815
2.8346999 1.6395493 -0.49361169
2.8692069 1.6320627 -0.491772
2.7712286 1.6510452 -0.49739
2.7836561 1.652858 -0.49559447
2.9317288 1.6565765 -0.49123594
3.0067656 1.6575613 -0.49331975
2.7356682 1.6675653 -0.49290466
2.6949546 1.684482 -0.492246
2.9659314 1.687337 -0.49026206
3.1891789 1.6861157 -0.49785557
2.6532762 1.6935927 -0.49701449
2.5704739 1.7333257 -0.4917466
3.135745 1.7432036 -0.49427375
5.2288141 3.7715912 -0.49318561
5.2790761 3.7766922 -0.49779853
5.2003322 3.7835743 -0.49029732
5.2382736 3.7816598 -0.49159145
5.2432752 3.789463 -0.49807766
5.2909708 3.7857902 -0.49282515
5.1718979 3.7986293 -0.49873331
5.1962509 3.7905974 -0.49916685
5.2782316 3.8055851 -0.490529
5.1948624 3.8158653 -0.49299145
5.2990623 3.8428161 -0.49064213
5.3141308 3.8777089 -0.49735495
5.2179418 3.8872132 -0.49558654
5.3263512 3.9157822 -0.49884331
4.9248075 3.9778211 -0.49831331
1.886212 -0.6257723 -0.48784402
1.9376743 -0.60893095 -0.48432615
1.8076403 -0.58437306 -0.48600945
1.8251734 -0.58534122 -0.4882614
1.859661 -0.58389562 -0.48674944
1.9324582 -0.58379537 -0.48193851
1.8092268 -0.57460904 -0.488096
1.8241668 -0.57532942 -0.48632854
1.8249667 -0.55136979 -0.48580766
1.8347698 -0.55943197 -0.48069146
1.8485336 -0.5210945 -0.48993081
1.8839145 -0.49399546 -0.48480147
1.8950043 -0.47451708 -0.48812911
1.8986602 -0.4684146 -0.48712498
1.9272594 -0.44857216 -0.48949271
3.016444 -0.25209439 -0.48068708
3.1952441 -0.21975754 -0.48434183
3.1592438 -0.16448641 -0.48106003
2.9429681 -0.067533121 -0.48486221
2.921459 -0.049216539 -0.48172772
2.8327591 -0.012253739 -0.48841646
3.139014 -0.0066826292 -0.48596251
2.8955851 0.011633304 -0.4866468
2.9263883 0.016723372 -0.48633471
2.9555581 0.01526341 -0.48297295
2.952589 0.023365268 -0.48685613
3.1153803 0.04180105 -0.48624885
2.9937332 0.059434667 -0.48825145
2.9577494 0.062214244 -0.48843583
2.9683487 0.069885403 -0.48788172
3.0307839 0.065798059 -0.48919341
3.0513971 0.07649941 -0.48024863
3.1189609 0.089812748 -0.48402986
2.9539561 0.1022547 -0.48662403
5.6417799 0.5901354 -0.4881174
5.6229987 0.60733545 -0.48084477
5.6133585 0.61674404 -0.48389557
5.5679975 0.64582294 -0.48295689
5.5847497 0.64043653 -0.48635179
5.546195 0.66423988 -0.48609722
5.401741 0.77279973 -0.48604652
5.3084073 0.84464806 -0.48732111
5.2598906 0.87507069 -0.48646903
5.2717695 0.87587154 -0.48095387
5.2521982 0.9171111 -0.48095128
5.2630558 0.92441237 -0.48399451
5.28824 0.94456023 -0.48087326
5.3605633 0.99193847 -0.48724899
5.4185181 1.0312718 -0.48508313
5.3144107 1.0776072 -0.48695177
5.3099113 1.0968974 -0.48186204
5.3249621 1.0911763 -0.48337731
5.3264718 1.1365898 -0.48593098
5.5724478 1.2890522 -0.48046315
5.6007342 1.3074094 -0.48615494
3.2456763 1.4222896 -0.48032016
3.3000553 1.4462112 -0.48480454
3.3273726 1.4593891 -0.48530981
3.3989809 1.458041 -0.48813596
3.1652269 1.4630692 -0.48214623
3.2923725 1.4600449 -0.48974904
3.3075855 1.4674197 -0.48105901
3.3034759 1.4729102 -0.48525637
3.3397098 1.4842494 -0.48951563
3.1346307 1.4938 -0.48434696
3.3433754 1.4911724 -0.48396772
3.1179585 1.5087297 -0.48941875
3.1009264 1.535759 -0.48520631
3.2747273 1.5575967 -0.48736635
3.0675836 1.5730124 -0.4851729
3.0326009 1.5979887 -0.48003763
3.2624745 1.5995239 -0.48729008
2.7874627 1.6536114 -0.48911053
2.7091553 1.6699003 -0.4884302
2.7429307 1.6693468 -0.48689711
2.9387853 1.6698914 -0.48559579
2.9822328 1.6627648 -0.48193693
2.6699729 1.6862516 -0.48309013
2.9805825 1.6849438 -0.48391387
2.6491008 1.6964729 -0.48524752
2.6175001 1.7066211 -0.4866125
2.6294637 1.7049726 -0.48521912
2.5980189 1.7284559 -0.48094445
2.5863926 1.7308108 -0.4816258
2.568826 1.7440014 -0.48149905
2.5945475 1.7798691 -0.48036274
5.2576661 3.7500627 -0.48349136
5.2654638 3.7584801 -0.48602805
5.2001028 3.7654452 -0.48222825
5.2355089 3.7649698 -0.48672736
5.1927042 3.7856688 -0.48408586
5.2332683 3.7971516 -0.48118654
5.2391462 3.8001323 -0.48271912
5.1740847 3.8157892 -0.48153165
5.2858872 3.8197892 -0.48425314
5.2972035 3.81902 -0.48535702
5.2184744 3.8455133 -0.48669294
5.3090363 3.8491971 -0.48378691
5.3218751 3.8746836 -0.48918915
5.3064046 3.8807359 -0.48607486
5.2440581 3.9163413 -0.48684692
5.2418365 3.9202621 -0.48732147
4.5960655 4.2586775 -0.48796982
1.8839285 -0.64258826 -0.47384208
1.9164329 -0.64163506 -0.47203192
1.9912469 -0.62957019 -0.47421655
1.8304939 -0.60235965 -0.47628945
1.858234 -0.60147315 -0.47850797
1.8517295 -0.59345347 -0.47875202
1.8195863 -0.58625811 -0.47326508
1.8201276 -0.56646508 -0.47176638
1.8397098 -0.56815982 -0.47413573
1.8526748 -0.51948273 -0.4742488
1.8740543 -0.50250906 -0.47901544
1.8822412 -0.49326223 -0.47884572
3.1969552 -0.22302978 -0.47357357
3.1744566 -0.18738428 -0.47647703
3.1864512 -0.18788202 -0.4766818
3.193763 -0.18297635 -0.47375509
2.9306502 -0.15318345 -0.47931582
3.1572096 -0.14475657 -0.47868502
3.1446602 -0.038067702 -0.47792223
2.9619091 -0.0027939128 -0.47147232
3.1004705 0.0099329073 -0.47297195
3.1197209 0.018377619 -0.47716311
2.8845069 0.039093275 -0.47917184
2.9103553 0.039920211 -0.4701007
2.9229693 0.048412628 -0.47574911
3.0415423 0.050236329 -0.47143385
3.0363903 0.06431555 -0.47830257
2.9825289 0.075246431 -0.47800955
3.0438442 0.077889137 -0.47371787
3.1279058 0.078937903 -0.47922224
2.9702032 0.085568346 -0.47205675
3.0628037 0.080480121 -0.47367972
3.0836914 0.082918465 -0.47441763
3.1275873 0.094018742 -0.47207063
5.5857124 0.63919652 -0.47697416
5.5533471 0.66600919 -0.47465885
5.5214496 0.68780464 -0.47314799
5.5083508 0.69645655 -0.47425428
5.5159507 0.69269675 -0.47200865
5.4872341 0.71568555 -0.47449824
5.4493637 0.73917824 -0.4748911
5.4442534 0.74289447 -0.47895697
5.4179535 0.76733822 -0.47051969
5.2440948 0.89530671 -0.47655004
5.2647705 0.93719673 -0.47886041
5.2943902 0.96688753 -0.47312465
5.3221169 1.0750127 -0.47807932
5.3375015 1.072665 -0.47051471
5.3227572 1.1089083 -0.47483379
5.3201394 1.1143452 -0.47823715
5.3634963 1.1904544 -0.47441754
5.3727026 1.2025793 -0.47690904
5.3813992 1.2084136 -0.47698677
5.6943474 1.2066158 -0.47559711
5.6131244 1.268935 -0.47597599
3.218128 1.3884451 -0.47249833
3.2088528 1.3983687 -0.47201532
3.2318392 1.4052179 -0.47326276
3.259011 1.4053291 -0.47187021
3.2453585 1.4120592 -0.4710719
3.1920934 1.4246747 -0.47807118
3.2906656 1.4210631 -0.47357795
3.2588704 1.4316237 -0.47244549
3.3179095 1.438992 -0.47305614
3.3396492 1.4499867 -0.47304067
3.1579633 1.4589016 -0.47323149
3.2008574 1.4579241 -0.4768641
3.2942843 1.4776264 -0.47447741
3.3135056 1.471971 -0.47266996
3.1138408 1.4878516 -0.47380903
3.1483512 1.4892888 -0.47458756
3.1617005 1.4882063 -0.47657931
3.3258305 1.4821253 -0.47702217
3.3415506 1.5004574 -0.47876337
3.1179287 1.5176777 -0.47155005
3.1292388 1.5185589 -0.47186592
3.0855744 1.5560671 -0.47497964
3.0974798 1.5705541 -0.47317585
3.2749732 1.5763333 -0.47811937
3.0075707 1.5987819 -0.47046924
3.0565629 1.593502 -0.47228867
3.0422392 1.6027155 -0.47851503
3.0166593 1.6280892 -0.47279984
2.8366642 1.6381958 -0.47212115
2.8467381 1.6335495 -0.47428134
2.8143218 1.6438375 -0.4792977
2.7903919 1.6517403 -0.47477099
2.9763403 1.6659532 -0.47348478
3.2074571 1.6602795 -0.47093987
2.6214273 1.6889584 -0.47602269
2.7148194 1.6825995 -0.47509515
2.6180885 1.6975702 -0.47779164
2.5876086 1.7258534 -0.47785336
2.5765374 1.7467132 -0.47393134
2.6014132 1.7412603 -0.47390145
3.1375728 1.7446815 -0.47561175
2.5849197 1.7954558 -0.4712671
4.1568666 3.4438591 -0.47364503
5.2344775 3.7598126 -0.47740561
5.2592263 3.7687674 -0.47563133
5.2415862 3.7742109 -0.47606528
5.2493019 3.8128595 -0.47319466
5.2622795 3.8192015 -0.47808954
5.2101254 3.8287668 -0.47741404
5.2306461 3.8808038 -0.47562462
4.5971813 4.2511492 -0.47564036
1.8960474 -0.64793038 -0.46644562
1.8191406 -0.55808669 -0.46722734
1.8283509 -0.55693334 -0.46773291
1.8422992 -0.55012566 -0.4610453
1.8434219 -0.52650666 -0.46906102
1.8431766 -0.51751441 -0.4686107
1.8618503 -0.5015313 -0.46876127
1.8732634 -0.49635458 -0.4616259
1.8776442 -0.48663968 -0.46877947
1.9018937 -0.46164069 -0.46897194
1.9465427 -0.43088609 -0.46110204
1.9404051 -0.42837039 -0.46982881
2.9491959 -0.14062533 -0.46410811
3.1696973 -0.14288746 -0.46663567
2.931206 -0.12556973 -0.46724364
2.9573116 -0.10918123 -0.46633148
3.1652727 -0.10177558 -0.46297449
3.1686928 -0.054813758 -0.46092841
3.1578784 -0.046704315 -0.46717533
2.9156818 -0.022081427 -0.46971798
3.1425219 -0.0090564685 -0.46921656
2.876507 0.011769641 -0.46666136
2.9523678 0.025709944 -0.46569398
2.9000711 0.042494509 -0.46315607
2.9616826 0.043862581 -0.46233505
3.1128557 0.053676058 -0.46527675
3.1237273 0.058356196 -0.46156937
2.9587913 0.076584674 -0.46582377
2.9784896 0.082129233 -0.46726668
3.0713012 0.082554758 -0.46546707
3.0947332 0.085245155 -0.46647367
2.9549382 0.10274494 -0.46901935
5.6893382 0.56649595 -0.46708992
5.6284451 0.6117233 -0.46125183
5.4924498 0.71192312 -0.46849793
5.4115086 0.77424473 -0.46269014
5.3926125 0.79250622 -0.46444851
5.3476353 0.81837654 -0.46754736
5.3577027 0.81474185 -0.46586984
5.3178105 0.84783971 -0.46061581
5.3223424 0.84319091 -0.4648068
5.2714849 0.95443547 -0.46798795
5.3297625 0.99766397 -0.46571392
5.3088078 1.1117965 -0.46567547
5.3333187 1.1738394 -0.46735182
5.360857 1.2103059 -0.46673724
3.2221198 1.387514 -0.46643445
3.230854 1.3898196 -0.46321836
3.2396019 1.391804 -0.46281785
3.2015088 1.4161981 -0.46232295
3.2376866 1.4157495 -0.46400717
3.2573171 1.4304591 -0.46626711
3.1748278 1.4538893 -0.46077701
3.2710147 1.4630421 -0.46919703
3.1073427 1.4795889 -0.46249977
3.3266361 1.4817958 -0.46419534
3.3212554 1.5116001 -0.46674031
2.8966405 1.6143651 -0.46878752
2.8718545 1.6223361 -0.46667328
2.8817475 1.6353601 -0.46733728
2.8603039 1.6449214 -0.466977
2.7583106 1.661881 -0.46809348
2.9900303 1.6617916 -0.46826309
2.7186003 1.6718392 -0.4619191
2.9598773 1.6790457 -0.46714956
2.6746173 1.6875424 -0.4666329
2.9462469 1.6820222 -0.46707574
2.6150835 1.696907 -0.46743423
2.6342909 1.7010723 -0.466645
3.1438315 1.7167709 -0.46673724
2.6019001 1.7321854 -0.46763572
2.6031735 1.7440108 -0.4671731
5.2846541 3.8558087 -0.46730605
4.5585685 4.226347 -0.46615359
1.8781519 -0.63525736 -0.4591054
1.9241067 -0.5797863 -0.45210379
1.8201288 -0.54823345 -0.45890212
1.8468114 -0.53199011 -0.45433602
1.8578792 -0.51025248 -0.45023963
1.8894283 -0.46896529 -0.45672151
1.9078407 -0.46524581 -0.4549531
1.8969258 -0.45331064 -0.45294821
1.921615 -0.44593361 -0.454983
2.9070027 -0.12982224 -0.45425341
2.941062 -0.11767287 -0.45801732
2.9560003 -0.090826526 -0.45846128
3.1672573 -0.086807474 -0.45624053
2.9284422 -0.078270815 -0.45242101
3.1669178 -0.048243776 -0.45255092
3.1312904 0.0079159252 -0.45972151
2.9434237 0.032465506 -0.45821664
2.9934196 0.038623963 -0.45350999
2.9509869 0.040950015 -0.45773521
2.9150288 0.056807514 -0.45974302
2.9985838 0.056535818 -0.45912048
2.9961178 0.061794207 -0.45241624
2.9720719 0.087122485 -0.45535871
3.1021051 0.090044677 -0.45969358
3.113905 0.094356328 -0.45008686
5.6684585 0.58782983 -0.45653972
5.6345959 0.61668378 -0.45012596
5.6033993 0.63610101 -0.45673782
5.4585118 0.74451101 -0.45953101
5.4268832 0.77174723 -0.45799327
5.3650589 0.81599969 -0.45869261
5.2881937 0.87310648 -0.45772383
5.292376 0.8706032 -0.453881
5.2634125 0.8898927 -0.45234728
5.2475939 0.89282036 -0.45783311
5.2355366 0.91146457 -0.45448491
5.363287 1.034326 -0.45653751
5.3783073 1.0360384 -0.45644265
5.333076 1.0618069 -0.45085332
5.3212037 1.0889046 -0.45639721
5.3199048 1.1067442 -0.45966911
5.3683343 1.1212705 -0.45979381
5.3350973 1.1362145 -0.45353961
5.3505011 1.1337492 -0.45544964
5.3408685 1.1618134 -0.45478305
5.5149965 1.2338395 -0.45144695
5.6751757 1.2672694 -0.45020622
3.2817864 1.3843217 -0.45025346
3.2732079 1.3917224 -0.45705229
3.2089536 1.4001958 -0.45373943
3.234019 1.4212857 -0.45599607
3.308599 1.4238371 -0.45559168
3.2754378 1.4303341 -0.45016804
3.1706288 1.4451982 -0.4526659
3.2878611 1.445325 -0.45195606
3.3438721 1.4435872 -0.45765361
3.1776409 1.4625248 -0.45139459
3.292253 1.4614658 -0.45253479
3.3135355 1.4638088 -0.45128295
3.3520916 1.461588 -0.4542248
3.1400847 1.480819 -0.45004213
3.139348 1.5019795 -0.45005375
3.3201492 1.5275838 -0.45654511
3.3156023 1.5355519 -0.45505339
3.1345851 1.5425742 -0.45399845
3.0893564 1.5803233 -0.45123765
3.2724721 1.5865951 -0.45593059
3.2694936 1.5904235 -0.45828578
3.2533791 1.6082342 -0.45172378
2.8386052 1.6225013 -0.45075062
3.0702825 1.6235414 -0.45022705
2.8235734 1.6362542 -0.45719355
2.8963373 1.6344236 -0.45600456
3.2277606 1.6378286 -0.45207179
2.7683465 1.652662 -0.45832723
3.0300174 1.6581051 -0.45634201
3.2163718 1.655683 -0.45651898
2.704998 1.6695478 -0.45822909
2.7330639 1.6643772 -0.45941997
2.6962521 1.6797473 -0.45831668
2.6804333 1.6804769 -0.45330271
2.6969182 1.6850871 -0.45576403
2.6326313 1.6974915 -0.4557423
3.1780393 1.6986314 -0.45328259
2.5916207 1.7292236 -0.4595997
3.106992 1.777146 -0.45397949
3.1155412 1.7786276 -0.45611626
5.2435184 3.8192439 -0.45017827
5.2103066 3.8620236 -0.45368111
1.8603669 -0.6413666 -0.44836155
1.8547107 -0.61025274 -0.44558334
1.8911233 -0.58432782 -0.44640717
1.8405145 -0.52388906 -0.44893393
1.8744212 -0.4827182 -0.44029531
1.8874249 -0.46710262 -0.44324541
1.9041617 -0.45856905 -0.4444384
1.9226695 -0.4386459 -0.44570208
3.1776259 -0.27418017 -0.44394514
2.9678469 -0.18825707 -0.44963941
3.2071424 -0.17885982 -0.44277287
3.1812246 -0.13901931 -0.44676548
3.1726451 -0.07833501 -0.44084275
3.1683381 -0.052183822 -0.44741759
2.909517 -0.038234524 -0.44451281
3.165426 -0.031306747 -0.44248608
2.936461 -0.022045014 -0.44685024
3.1382186 0.0027446221 -0.44138888
2.8570008 0.019661274 -0.44217175
2.8844411 0.03146844 -0.44893879
2.9175177 0.046403103 -0.44167143
2.9430277 0.046655174 -0.4421494
2.8945613 0.055032022 -0.44762585
2.8970983 0.06249246 -0.44900736
2.9973547 0.067457609 -0.44596636
3.1316671 0.061716583 -0.44482386
3.0144291 0.071283318 -0.44611609
3.0233192 0.071738012 -0.44995561
3.0585594 0.078586414 -0.44005334
3.1251657 0.073290095 -0.44088697
3.1174209 0.094942808 -0.44405445
3.1261015 0.095362887 -0.4444198
3.1347458 0.10052938 -0.4434514
5.6341305 0.61015522 -0.44880247
5.6423249 0.6170035 -0.44237477
5.6093578 0.64038742 -0.446491
5.5767512 0.65770155 -0.44206578
5.5736604 0.66337639 -0.44868374
5.5628147 0.67082876 -0.44764486
5.5389876 0.68578351 -0.44759235
5.501174 0.70993 -0.44900241
5.4954915 0.71637964 -0.44866848
5.4774585 0.73602551 -0.44153565
5.4694967 0.7433784 -0.4419139
5.4042749 0.79364514 -0.44152716
5.3303132 0.84594244 -0.44905192
5.2293758 0.91956067 -0.44093531
5.2354069 0.920421 -0.44510064
5.2245235 0.9339484 -0.44276106
5.282783 0.97177529 -0.44761887
5.2875981 0.98234665 -0.44806665
5.2982669 0.99091893 -0.44734827
5.284687 1.0817318 -0.4429343
5.3042879 1.09776 -0.44542629
5.3027334 1.1200699 -0.4442364
5.3206301 1.1419437 -0.44762465
5.3437786 1.1521152 -0.44522002
5.3368487 1.1662965 -0.44942477
5.4962816 1.2092857 -0.44486055
5.3958569 1.2104601 -0.44461936
3.2676716 1.379856 -0.4484446
3.1999829 1.3847933 -0.44413114
3.2236073 1.3892359 -0.44452053
3.2195685 1.3906314 -0.44994527
3.2523441 1.3944677 -0.44840395
3.2769768 1.4176155 -0.44013351
3.1847541 1.4213638 -0.44798338
3.2966011 1.4202722 -0.44669038
3.183851 1.4404999 -0.44336328
3.146167 1.465628 -0.44548994
3.3638217 1.4736084 -0.44468814
3.1222157 1.495121 -0.44582924
3.0803268 1.5308992 -0.44934168
3.2956505 1.5623457 -0.44035375
3.0587888 1.5708544 -0.44287738
2.8710966 1.6138297 -0.4402498
3.0286467 1.6131392 -0.44136414
2.8766296 1.6260223 -0.44729292
2.8363898 1.6317023 -0.44033962
2.8593259 1.6384698 -0.44512919
3.234235 1.6376143 -0.44941169
2.7816033 1.6456016 -0.44496763
2.9975986 1.6454742 -0.44241655
2.7217693 1.6686931 -0.44934079
2.7367315 1.6624793 -0.44175446
3.201395 1.6711838 -0.44481441
2.6538 1.6880985 -0.44241923
2.6907761 1.6810514 -0.4430303
2.9631786 1.6887151 -0.44296929
2.6434031 1.6962587 -0.44578961
2.6241817 1.7018688 -0.44295672
2.5674949 1.754014 -0.44415417
3.1114523 1.7859956 -0.4461666
5.2301917 3.8123982 -0.44667965
1.8820617 -0.65931296 -0.43854108
1.8909774 -0.63676018 -0.43810195
1.8064609 -0.59058195 -0.43261567
1.8109272 -0.58746922 -0.43319824
1.8433443 -0.54611069 -0.43414891
1.82477 -0.52479255 -0.43149406
1.8567097 -0.51869744 -0.43248412
1.8751786 -0.4993546 -0.43776336
1.8858137 -0.47433424 -0.43215108
2.9114926 -0.11873099 -0.43726212
3.1711459 -0.08645606 -0.43399054
2.8449926 0.0068660015 -0.43400809
2.850666 0.022274418 -0.43443385
2.9071207 0.033404779 -0.43818441
2.9150329 0.048739735 -0.43018094
2.9001353 0.059850499 -0.435808
3.0429177 0.050230104 -0.43730965
3.0071092 0.070048459 -0.43581024
3.0506039 0.078446977 -0.43808448
3.0870574 0.092729092 -0.43060601
3.0950851 0.093952604 -0.43543243
3.120425 0.099918552 -0.43390265
3.1195872 0.10075491 -0.43864343
3.0719011 0.12510088 -0.43657276
0.26662961 0.19259135 -0.43158442
0.28402919 0.24028713 -0.43868101
5.692029 0.57880396 -0.43236694
5.5445189 0.6834262 -0.43919474
5.5168009 0.71181726 -0.43519402
5.4598937 0.75187141 -0.43390501
5.4401217 0.76156235 -0.43812311
5.4402547 0.77057821 -0.43642542
5.414113 0.78395689 -0.43858477
5.3764973 0.81503606 -0.43619916
5.2795134 0.89140528 -0.4327822
5.2361717 0.95831776 -0.43525571
5.2502189 0.96350932 -0.43308061
5.3203492 1.0050521 -0.43531802
5.3533149 1.0211396 -0.4316076
5.3102441 1.0840921 -0.43858299
5.2940774 1.1008881 -0.43822435
5.3046265 1.1056075 -0.43673393
5.4775038 1.2275975 -0.43076891
5.6434999 1.262874 -0.43081164
5.6895194 1.2642161 -0.43085885
3.2900429 1.3815445 -0.43044657
3.229059 1.3927835 -0.43862319
3.1723018 1.419611 -0.43578896
3.2453167 1.4105358 -0.43851769
3.3149071 1.4217039 -0.43151864
3.1899588 1.43878 -0.43086252
3.3328326 1.4455538 -0.43324849
3.3406346 1.4409436 -0.43478736
3.1452732 1.4529705 -0.43045682
3.2779009 1.4534774 -0.43117136
3.3007572 1.4555008 -0.43281442
3.3087804 1.4664801 -0.43895632
3.3152113 1.4663892 -0.43007261
3.1203518 1.4788893 -0.43667856
3.3561466 1.4748775 -0.43850034
3.3086717 1.4810808 -0.43935385
3.1116168 1.4916064 -0.43926623
3.0899515 1.5369022 -0.43491557
3.2947071 1.541773 -0.43995425
3.2947683 1.5588138 -0.43547422
3.2755826 1.5942717 -0.43816292
2.8686581 1.6256468 -0.43140215
3.2401588 1.622274 -0.43409163
2.8269506 1.6369222 -0.43754616
2.8339927 1.6376191 -0.43348047
2.7961993 1.6486038 -0.43497941
3.2235777 1.6472359 -0.43140757
2.7841582 1.6521257 -0.43086889
2.6511016 1.6841509 -0.43402302
2.986793 1.6804454 -0.43965766
2.968107 1.6983941 -0.43224457
2.622303 1.7038655 -0.43331617
2.9434571 1.7065657 -0.43426293
2.5692012 1.726789 -0.43409985
2.5984704 1.7239925 -0.43854669
5.2172437 3.8289132 -0.43018645
5.2491651 3.8619883 -0.43288505
1.8910949 -0.6453793 -0.4216994
1.9044955 -0.64527011 -0.42261884
1.9002669 -0.63383114 -0.42444491
1.9135526 -0.63643384 -0.42939702
1.8429774 -0.60419118 -0.4211134
1.8363165 -0.59615964 -0.42120147
1.8106155 -0.58613592 -0.42118359
1.8227943 -0.57251966 -0.42889357
1.8165879 -0.56082374 -0.42228049
1.8311369 -0.55854428 -0.4267216
1.8248105 -0.54316419 -0.42644852
1.8382347 -0.516635 -0.42631075
1.8686615 -0.5122335 -0.42295703
1.8544629 -0.50437886 -0.42891413
1.8515832 -0.49738359 -0.42439345
1.912479 -0.44910333 -0.42103028
1.9262246 -0.4444184 -0.42569306
2.9424012 -0.23767966 -0.42179611
2.9205489 -0.17394979 -0.42635536
2.9261696 -0.1685539 -0.42294291
3.1846857 -0.13541761 -0.42402315
3.1824796 -0.1225324 -0.42942938
2.8852849 -0.1151259 -0.4243336
2.9085433 -0.11596499 -0.42448425
2.9259374 -0.11367249 -0.4292174
2.8989089 -0.096992232 -0.42492467
2.8889854 -0.064551167 -0.4200578
2.9047925 0.040319216 -0.42684984
2.8928354 0.055999208 -0.42362201
2.9737403 0.050952185 -0.42656544
3.1301336 0.057873987 -0.42170677
2.9180224 0.065729432 -0.42544577
2.9797413 0.06172796 -0.42230397
3.131655 0.069900706 -0.42905611
2.9488227 0.087285526 -0.42093468
2.9616947 0.082568176 -0.42821154
3.0590079 0.08885169 -0.42502162
3.0730195 0.092127733 -0.4240894
3.0820742 0.091599613 -0.4268156
3.118031 0.098528624 -0.42043957
0.31581444 0.28014129 -0.42755008
5.6590133 0.60503769 -0.42358831
5.6233358 0.63966757 -0.42068139
5.588037 0.6572898 -0.42117146
5.606554 0.65165585 -0.42036548
5.5670042 0.68228018 -0.42040157
5.4178629 0.78656179 -0.42743024
5.3833404 0.81930172 -0.42534682
5.3458557 0.84410119 -0.42525628
5.3595724 0.84576344 -0.42268968
5.3099494 0.86860675 -0.42724386
5.3228102 0.86340475 -0.42456365
5.3114614 0.87160814 -0.4275876
5.2815151 0.89288181 -0.42670152
5.250124 0.91558039 -0.42128077
5.2218437 0.94907331 -0.42067626
5.2178388 0.95074004 -0.42200899
5.2458634 0.97237581 -0.42293662
5.284956 1.0002586 -0.42455572
5.3354583 1.0379939 -0.42549932
5.3535585 1.0914867 -0.42497462
5.3392558 1.1230702 -0.42446309
5.3135991 1.1400034 -0.42130741
5.347806 1.1510824 -0.42939225
5.3352261 1.1640915 -0.42815253
5.3203783 1.1776184 -0.42102417
5.3592052 1.1841663 -0.42992476
5.3623934 1.1899079 -0.42004883
5.3765512 1.1993296 -0.42113402
5.6682949 1.2882471 -0.42522368
3.2853775 1.4072794 -0.42710936
3.173949 1.4179881 -0.4261784
3.2213941 1.4118308 -0.42505872
3.3285151 1.4267906 -0.42842877
3.1796765 1.4535514 -0.42846611
3.1593571 1.4726659 -0.42656288
3.3600488 1.4845535 -0.42752376
3.3512082 1.5025566 -0.42094675
3.0870767 1.5460984 -0.42728615
3.0268939 1.6087228 -0.4289141
3.24493 1.6161325 -0.42279166
3.2529962 1.6197646 -0.42520168
2.7555864 1.6573944 -0.42977962
2.7926567 1.6537079 -0.42644909
2.9927132 1.6554605 -0.4281981
2.7395887 1.6650791 -0.4285433
2.9300182 1.6750393 -0.42079923
2.5858662 1.7342469 -0.42487121
3.1517308 1.7308233 -0.42651191
2.5671835 1.7486185 -0.4212268
2.5721772 1.7426708 -0.42925313
3.092895 1.8025051 -0.42031768
2.7003806 1.8174751 -0.42032614
5.2066803 3.8203688 -0.42901897
5.2361574 3.8465095 -0.42687386
5.2489872 3.8440034 -0.42386991
1.8499984 -0.6273061 -0.41630518
1.8527226 -0.62498868 -0.41666827
1.8826953 -0.62386674 -0.4101783
1.8099434 -0.60256833 -0.41568542
1.8592074 -0.60338211 -0.41555041
1.8299073 -0.59102601 -0.41668227
1.8240629 -0.57993191 -0.41698608
1.8361506 -0.55353665 -0.41346848
1.842476 -0.52018493 -0.41816601
1.9041957 -0.48847082 -0.41796979
1.9229881 -0.43358809 -0.41567439
3.2010369 -0.17259663 -0.41993308
3.1897235 -0.1129728 -0.41716313
2.9158647 -0.10095647 -0.41907936
3.1672316 -0.072148025 -0.4122245
3.1760378 -0.0440998 -0.41373804
2.8795404 -0.0093761757 -0.41734257
2.8974733 0.010627387 -0.4107334
2.8611128 0.031354025 -0.41754586
2.8543885 0.049449038 -0.41878179
2.8583 0.056769662 -0.4164671
2.9552815 0.054262206 -0.41381457
2.978534 0.061243426 -0.41665211
3.0074813 0.068039343 -0.41463074
3.0239272 0.066645272 -0.41297859
3.1279423 0.066877931 -0.41370922
2.932483 0.079054996 -0.41368401
3.117491 0.092072278 -0.4135426
3.1206975 0.1017015 -0.41257104
3.0352578 0.11346381 -0.41381666
3.0623503 0.12113014 -0.41016227
0.29459682 0.21073091 -0.41574994
5.6337867 0.63372338 -0.41858602
5.6476169 0.63083249 -0.41651544
5.6411939 0.64210635 -0.41387132
5.5710793 0.67524534 -0.41479838
5.5349903 0.7078678 -0.41382399
5.5462451 0.70457089 -0.41271454
5.5270586 0.71479928 -0.41034144
5.4405127 0.78039241 -0.41340494
5.291152 0.89365512 -0.41378915
5.2523522 0.92040223 -0.41216978
5.2168198 0.93404704 -0.41604543
5.2258101 0.932401 -0.41206163
5.2132964 0.94905651 -0.41487026
5.2305593 0.96714568 -0.41818157
5.2451773 0.98391974 -0.41507202
5.3409977 1.0324566 -0.41699439
5.3299785 1.0493073 -0.4116087
5.314734 1.0911046 -0.4140448
5.3283944 1.1462574 -0.41254973
5.3167439 1.1545907 -0.41825932
5.6210127 1.257566 -0.41450077
5.6491089 1.2626663 -0.4171744
5.6800246 1.2609789 -0.41372058
5.6503253 1.2727048 -0.41799748
3.2326605 1.3805797 -0.41950482
3.2057137 1.3902645 -0.41456842
3.2153287 1.3909569 -0.41515291
3.2411921 1.4074769 -0.41852903
3.2578683 1.4083403 -0.41768658
3.191237 1.417749 -0.41726395
3.1804602 1.4313848 -0.41763195
3.2446601 1.43362 -0.41197017
3.2693305 1.4352696 -0.412175
3.161247 1.4531329 -0.4156377
3.1273732 1.4976815 -0.41574383
3.3387086 1.4983443 -0.41639283
3.1207769 1.512664 -0.41955209
3.3386834 1.5102854 -0.41304496
3.3338931 1.5226219 -0.41796428
3.0992854 1.5313504 -0.41405728
3.0482028 1.5778006 -0.41802397
3.08726 1.5710772 -0.41334984
3.2695341 1.5927414 -0.41098204
3.0211818 1.6112571 -0.41922909
3.0447114 1.6116663 -0.41245237
2.8770595 1.6267782 -0.41296238
2.7815895 1.6312016 -0.4147152
2.7539337 1.653252 -0.41419393
2.7203877 1.6691282 -0.41774511
2.7413123 1.6695524 -0.41587126
2.9115882 1.6657782 -0.41220999
2.6635804 1.6810218 -0.41653323
2.6848555 1.6833987 -0.4124375
2.6761067 1.6990229 -0.41267842
2.6991222 1.6963992 -0.41348162
2.6711442 1.7028998 -0.41365656
2.9522424 1.7006962 -0.41009659
2.5880659 1.7290871 -0.41652834
3.162209 1.7257819 -0.41168258
2.9264474 1.7526729 -0.41969472
2.5894387 1.7782314 -0.41966754
2.6149914 1.7817025 -0.4125717
2.5956037 1.7995923 -0.4186137
2.8238282 1.7943257 -0.41128972
2.805722 1.8111286 -0.41266558
2.696234 1.82136 -0.41917938
2.7041533 1.8335142 -0.41714975
2.6483686 1.8595738 -0.41236165
2.6450055 1.8606142 -0.41817951
5.1981039 3.835963 -0.41117808
5.2627454 3.8785911 -0.41033453
1.8624448 -0.6522826 -0.40964431
1.8740401 -0.62684947 -0.40442064
1.8759495 -0.61970526 -0.40497494
1.8668059 -0.5029043 -0.40874827
1.8704803 -0.49884692 -0.40721896
1.8664658 -0.48499858 -0.40585363
1.8785433 -0.47632656 -0.40476793
1.9091451 -0.44489864 -0.40543213
2.9145994 -0.23146828 -0.40255809
2.9292629 -0.22787002 -0.40748423
2.905256 -0.17432626 -0.40218005
3.2070324 -0.16588156 -0.4099893
3.2074215 -0.15969308 -0.40115175
3.1744785 -0.14264758 -0.40525687
2.8835635 -0.12872033 -0.40909001
3.1898246 -0.10661804 -0.4073253
2.8644943 -0.036261223 -0.40374029
3.1608813 -0.03893045 -0.40877199
3.1724246 -0.039836928 -0.40869501
3.1719217 -0.027316233 -0.40326336
3.0882339 -0.013331139 -0.40579244
3.1645234 -0.014592026 -0.40578648
2.883646 -0.0013327593 -0.40856573
3.1620402 -0.0070140255 -0.40399009
2.8972247 0.0124124 -0.40243724
3.1386397 0.021628629 -0.40549907
2.8465991 0.0322778 -0.40010872
2.8579073 0.031428568 -0.40087134
2.9045286 0.03278001 -0.40790555
2.8849633 0.044521719 -0.40498284
2.9394741 0.043238472 -0.40007189
2.8787379 0.051895868 -0.40638784
2.8479114 0.071520545 -0.40256396
3.0123961 0.078107037 -0.40698907
3.1356487 0.071037978 -0.40672818
3.0342684 0.081376992 -0.40583491
3.0406976 0.082564689 -0.40452254
3.0013149 0.10332001 -0.40004405
3.1271636 0.10379733 -0.40258503
3.1336801 0.10109635 -0.40962291
0.22077835 0.14074412 -0.40033275
0.30497551 0.26107359 -0.40139326
5.6465759 0.63529682 -0.40855283
5.6044135 0.66120654 -0.40988743
5.5721927 0.6844182 -0.40031087
5.4982085 0.7386359 -0.40688822
5.5017934 0.73775744 -0.40578473
5.4681296 0.75694716 -0.40904275
5.4631767 0.76083279 -0.40941557
5.4316325 0.78978026 -0.40180141
5.550704 0.81514221 -0.40046987
5.5617118 0.81429863 -0.40073326
5.3407779 0.8599394 -0.40230706
5.2667484 0.91731536 -0.40668467
5.2142229 0.95782977 -0.40320799
5.2354841 0.97484618 -0.4077509
5.2468266 0.99531019 -0.40207762
5.31844 1.0749718 -0.40407476
5.3524218 1.075413 -0.40773639
5.3157492 1.1170377 -0.40216079
5.3282166 1.1110141 -0.40500808
5.3268409 1.1378237 -0.4007526
5.3877468 1.1516472 -0.40650541
5.3945851 1.1998487 -0.40616599
5.6083431 1.2548701 -0.40823957
3.2220519 1.3688837 -0.40349537
3.2182338 1.3721231 -0.40208706
3.2730908 1.3800498 -0.40242264
3.2399027 1.3942487 -0.40302134
3.2854512 1.3928465 -0.40390453
3.290863 1.3953094 -0.40330866
3.2734241 1.4235247 -0.40461221
3.3572662 1.4417264 -0.40268135
3.3646271 1.4574999 -0.40359879
3.3152001 1.4631546 -0.40384871
3.0660965 1.4727484 -0.40351671
3.0734711 1.4767205 -0.40811944
3.0811055 1.5277153 -0.40463549
3.1403329 1.5251789 -0.40316048
3.3032174 1.5356106 -0.40905669
3.0497487 1.5645484 -0.40220499
3.0789261 1.5696288 -0.40840152
3.2920091 1.5779361 -0.40341857
2.857553 1.6306753 -0.40569991
2.8452339 1.6441692 -0.40677798
2.7722499 1.6508777 -0.40783533
2.905468 1.6536704 -0.4055078
2.7395563 1.663336 -0.4022961
2.9912081 1.6635119 -0.40890032
2.6415348 1.6817522 -0.40379596
2.696125 1.6850252 -0.40181676
3.1943426 1.681677 -0.40922403
2.623816 1.696541 -0.40428847
2.6385729 1.6967964 -0.40107268
2.8911104 1.6959475 -0.40822425
2.9014537 1.6922088 -0.40256125
2.6060531 1.7065607 -0.40117911
3.1732459 1.7132223 -0.40666264
2.5819979 1.7228271 -0.40384355
2.8588595 1.7271012 -0.40296134
2.918802 1.7286173 -0.40617266
2.5719485 1.7487657 -0.4075495
2.6011536 1.7496939 -0.40937573
2.5796731 1.7510854 -0.4053418
2.8627334 1.7562612 -0.40089065
2.5851369 1.7681659 -0.40869218
3.1274381 1.7654605 -0.40662104
3.1405287 1.7723981 -0.40719301
2.7127852 1.7875696 -0.40621313
2.8426054 1.7835552 -0.40110329
2.7041759 1.795419 -0.40610424
2.7797842 1.7918464 -0.40229502
2.7850769 1.8063548 -0.40218541
2.8060639 1.8074294 -0.40755817
2.7318926 1.8187599 -0.40447775
2.635546 1.8324175 -0.4065696
2.6738842 1.8370341 -0.40458488
2.6551633 1.8478739 -0.40415901
5.2166409 3.8410578 -0.4092719
1.8455732 -0.65690047 -0.39435235
1.8613416 -0.58591336 -0.39537618
1.8218507 -0.57658035 -0.39137048
1.8425367 -0.56375957 -0.39216781
1.8516523 -0.55896276 -0.3920193
1.8415674 -0.53220105 -0.39446044
1.8312559 -0.5084638 -0.39447984
1.9300917 -0.44084984 -0.39563188
3.204 -0.16815767 -0.39085716
3.2394183 -0.10548554 -0.39794862
2.8716612 -0.092985414 -0.39037353
3.184412 -0.068212748 -0.39990345
3.0781255 -0.016643159 -0.39633703
3.1354456 0.0098803369 -0.39966539
3.151382 0.016877268 -0.39800709
2.8489275 0.036902253 -0.39211467
2.850194 0.033894245 -0.3901701
2.8755379 0.03457446 -0.39012614
2.8945363 0.036765531 -0.39734653
3.1255608 0.035179038 -0.39893183
3.1364748 0.045401547 -0.3902494
2.9424276 0.057381865 -0.39325178
2.9620917 0.053932682 -0.39272302
2.8938391 0.068029337 -0.39832181
2.9393103 0.064925924 -0.39343759
2.9508147 0.064440787 -0.39463291
3.0224199 0.07734295 -0.39824945
3.076051 0.090105504 -0.39835826
3.0843058 0.093359388 -0.39025122
3.1170869 0.10856982 -0.39592871
3.0036628 0.11226889 -0.39834741
0.28538299 0.22131862 -0.39253756
5.6802425 0.60864812 -0.39818534
5.6593738 0.63232684 -0.39550632
5.6233158 0.65277988 -0.39022964
5.5070105 0.72837603 -0.39887422
5.4769588 0.75727284 -0.39895111
5.5350461 0.79939115 -0.39415997
5.416183 0.80197364 -0.39367115
5.3995643 0.81770927 -0.39561191
5.4083047 0.81133091 -0.39954963
5.3682361 0.83717859 -0.39546755
5.3715401 0.83324975 -0.39816576
5.3817029 0.83029622 -0.39132011
5.3366127 0.86448991 -0.39424127
5.3106852 0.88816011 -0.39426714
5.2773466 0.91509104 -0.39051956
5.2353711 0.93597347 -0.39283305
5.2272501 0.99060363 -0.39498398
5.3332462 1.0901629 -0.39768624
5.3976741 1.1638669 -0.39255595
5.3854432 1.1726042 -0.39482564
5.4377093 1.2181325 -0.39945942
5.6334672 1.2164032 -0.39832795
5.5521808 1.2851458 -0.39303827
3.2270644 1.3844675 -0.39283958
3.2708602 1.4120681 -0.39332172
3.3624339 1.443987 -0.3948893
3.3595307 1.4635776 -0.39377257
3.3752859 1.4686892 -0.39089707
3.3306618 1.4759759 -0.39115149
3.3706157 1.4737805 -0.39539278
3.3009601 1.5624816 -0.39318752
3.0572636 1.5869285 -0.39769134
3.0260091 1.6048596 -0.39937666
2.9942822 1.6197702 -0.39468896
3.0212462 1.6221751 -0.39414001
2.8880835 1.6418759 -0.39586845
2.9919062 1.6476393 -0.39754334
2.7760708 1.6537237 -0.39797878
2.7918289 1.6553204 -0.39083821
2.8291843 1.6568949 -0.39787778
3.2214751 1.6565057 -0.39663419
2.730181 1.6713519 -0.39414388
2.7468553 1.6717087 -0.39351767
2.8096905 1.6793317 -0.39879218
2.690295 1.6898849 -0.39416984
2.8693485 1.6867584 -0.3983002
2.9597442 1.6896946 -0.39983368
2.664607 1.6910223 -0.39025018
2.86936 1.6920252 -0.39338848
2.8060851 1.707235 -0.39221165
2.8959613 1.7085853 -0.39161152
2.6452472 1.7114238 -0.39109749
2.7712107 1.7101469 -0.39503583
2.8308253 1.7145339 -0.39494216
2.6511998 1.7230774 -0.39014634
2.6641166 1.7269766 -0.39187825
2.8422959 1.7287984 -0.39072362
2.9246261 1.7224227 -0.39652979
2.6119361 1.7310532 -0.39591783
2.6759465 1.7496172 -0.39016601
2.6820476 1.7408661 -0.39629677
2.7318926 1.7446947 -0.39544883
2.7766042 1.7493105 -0.39377543
2.7962277 1.7425995 -0.39074081
2.6165936 1.7522087 -0.3936885
2.695092 1.7539412 -0.39067644
2.8707881 1.7511431 -0.39685008
2.8936064 1.7554404 -0.39361894
2.8210373 1.7671624 -0.3988013
2.9335868 1.761727 -0.39439103
2.6936994 1.770358 -0.39680332
2.7546003 1.7760886 -0.39523345
2.817322 1.7721229 -0.39366671
2.8545456 1.7763329 -0.39096043
2.8639414 1.7775596 -0.3933571
2.6286471 1.7854384 -0.39177376
2.7532024 1.7895498 -0.39645767
2.6136239 1.7958214 -0.39056692
2.654289 1.8012463 -0.39520937
2.7159553 1.8044902 -0.39560059
1.8321368 -0.60865235 -0.38748735
1.8252496 -0.58516842 -0.38867524
1.8164637 -0.54574025 -0.38391402
1.8407046 -0.51601106 -0.38931713
1.8648583 -0.49034885 -0.3871699
1.8868161 -0.46709582 -0.38722929
2.8966982 -0.21539177 -0.38358906
3.1699636 -0.16192932 -0.38709158
3.1442785 -0.15582001 -0.3869729
3.1569049 -0.15123726 -0.38245597
3.2043822 -0.15186533 -0.38494086
3.1626542 -0.14132588 -0.38059929
3.2011259 -0.14434674 -0.3868393
3.1642458 -0.13201986 -0.38072613
3.1820176 -0.13761905 -0.38581771
2.8747809 -0.11726319 -0.3841165
3.1845918 -0.1112266 -0.38580868
2.8656626 -0.10612909 -0.38187185
3.1485391 -0.10923238 -0.38022926
3.1507504 -0.10755456 -0.38181418
3.1701646 -0.1003322 -0.38108116
3.1833546 -0.10742304 -0.38568327
3.1722536 -0.09093266 -0.38848826
3.1695089 -0.074781545 -0.38971931
3.1723087 -0.073204018 -0.38385111
3.165622 -0.062551908 -0.38800758
3.1784236 -0.031440955 -0.38397563
3.1213107 -0.0013178942 -0.38772866
3.1637626 -0.002115235 -0.38342223
3.1044619 0.006268674 -0.38725236
3.1272025 0.00056050357 -0.38448805
3.1402049 0.0095996121 -0.38559771
3.1577053 0.0047552623 -0.38283971
2.8146901 0.013629349 -0.38802019
3.1638801 0.017452821 -0.38439342
2.8745039 0.028497001 -0.38948554
2.8524761 0.033675268 -0.38283685
2.8769197 0.037410025 -0.38209313
2.9132917 0.038852952 -0.38858935
2.832741 0.046142381 -0.38081869
2.9080458 0.045797728 -0.38432324
3.1146064 0.040083911 -0.38898352
3.132983 0.04677996 -0.38791329
2.9236598 0.051708203 -0.3895385
2.9757197 0.059035935 -0.38150674
3.1259744 0.052926548 -0.38541484
2.9605293 0.061280116 -0.38866776
2.8932302 0.072606869 -0.3846581
3.1405156 0.071122304 -0.38370079
2.9482617 0.083046682 -0.38191432
3.1180313 0.096205205 -0.3861196
3.1038492 0.10056897 -0.38437727
3.1262305 0.10107727 -0.3809959
5.6127052 0.65791661 -0.38802648
5.6241913 0.65713549 -0.38219976
5.5914874 0.6787169 -0.3837122
5.585001 0.68293184 -0.38419029
5.5573254 0.70830518 -0.38551283
5.5239477 0.7333706 -0.38086841
5.4502392 0.78595275 -0.38752389
5.352057 0.86263525 -0.38560638
5.3197012 0.88959551 -0.38021258
5.3069849 0.8923403 -0.38606918
5.2899785 0.90751004 -0.38418671
5.270812 0.91478938 -0.38680103
5.2145438 0.95769 -0.38242009
5.2275558 0.98887211 -0.38742059
5.249227 1.0023854 -0.3899982
5.2616196 1.007621 -0.38976571
5.3297744 1.0791485 -0.38131556
5.3398242 1.0715392 -0.38281539
5.3204603 1.1172125 -0.38247889
5.3232603 1.1458092 -0.38449827
5.3390012 1.1677433 -0.38426703
5.3415079 1.165205 -0.38037351
5.3753037 1.1978723 -0.38483679
5.3860869 1.1997701 -0.38467959
5.4006891 1.1945007 -0.38554069
3.2172441 1.4050139 -0.38371795
3.1785169 1.4216572 -0.38335073
3.1895227 1.4282445 -0.38139769
3.3313377 1.4237572 -0.38708243
3.1877325 1.4324772 -0.38422287
3.2699316 1.4324777 -0.38002291
3.2831345 1.4364784 -0.38675582
3.2750075 1.448934 -0.38113686
3.3591177 1.4479799 -0.38906467
3.1492841 1.4669809 -0.38544422
3.300534 1.4632819 -0.38499504
3.1243048 1.4993348 -0.38639146
3.0832307 1.5353913 -0.38547617
3.3116121 1.5446975 -0.38970295
3.0529778 1.584111 -0.38234416
3.0215445 1.6160791 -0.38404092
3.241818 1.6284413 -0.38926992
3.2316918 1.6336353 -0.38347802
2.8203325 1.6409842 -0.38901702
3.2317326 1.6418264 -0.38498408
2.8071861 1.6509057 -0.38560459
2.7472682 1.6885995 -0.38629332
2.7800848 1.6921229 -0.38554546
2.6494064 1.7013618 -0.38938066
2.7156715 1.7156612 -0.38687521
3.1700604 1.7140176 -0.38461632
2.7536113 1.7302783 -0.38998273
2.8659868 1.7545832 -0.383735
3.1313243 1.7526208 -0.38777006
2.7255847 1.7763871 -0.38948935
3.1074698 1.7806578 -0.38385537
3.0973332 1.7924441 -0.38419193
1.8465029 -0.57335865 -0.37871733
1.8186303 -0.54578912 -0.37854049
1.8276405 -0.52459687 -0.37756082
1.7789377 -0.51048285 -0.37881139
1.8623052 -0.50151569 -0.37541407
1.8505201 -0.49826378 -0.37045795
1.872014 -0.49178129 -0.37193114
1.9056349 -0.44082502 -0.37425396
2.9759862 -0.23451649 -0.37204978
2.8805807 -0.21934538 -0.37707645
3.136467 -0.1771785 -0.37039369
3.1452835 -0.17140932 -0.37109131
2.883419 -0.16456507 -0.3797701
3.1986229 -0.16511127 -0.37022868
3.1799521 -0.14705771 -0.37862468
2.873765 -0.11757707 -0.37839067
2.8738241 -0.10777588 -0.37572363
2.8532302 -0.033544976 -0.37193269
3.0883045 -0.022538865 -0.37672651
3.0953717 -0.024584763 -0.37510252
3.1554079 -0.020366039 -0.37704536
3.174511 -0.022563739 -0.37761804
3.1248069 -0.01517814 -0.37838721
3.1715341 -0.012971107 -0.37320286
3.1357841 -0.0091613047 -0.37058255
3.1547925 -0.0020687026 -0.3752251
2.8070645 0.0043006176 -0.37898764
2.8035779 0.013235783 -0.37988812
2.8856637 0.018785952 -0.37676936
2.8294935 0.030887928 -0.37025976
2.8557606 0.033396959 -0.37899309
3.1110401 0.030464631 -0.37732419
2.7847064 0.042934995 -0.37081477
2.8845594 0.04529772 -0.371986
2.926158 0.044422749 -0.37193125
2.8353069 0.055657171 -0.37966493
2.9040489 0.053216822 -0.37795198
2.9237297 0.055742763 -0.37849313
2.8918648 0.062139805 -0.37983891
2.960222 0.06326022 -0.37468427
2.9864557 0.06886293 -0.37894991
2.992908 0.071676396 -0.37897241
3.0179083 0.079193391 -0.37189585
2.9280868 0.082034133 -0.37652552
3.0352623 0.081452593 -0.37207845
3.0721328 0.099350385 -0.37936726
3.1092501 0.099291183 -0.37587574
0.21538962 0.10332128 -0.37314856
3.1275463 0.10502005 -0.37393364
0.2549513 0.24451205 -0.37336859
5.6629581 0.62446719 -0.37680146
5.6025147 0.67499262 -0.37703764
5.5579772 0.70488536 -0.37910959
5.5654855 0.70035154 -0.3768298
5.5254359 0.72689837 -0.37456879
5.4875937 0.75990725 -0.37355649
5.4950085 0.75413859 -0.37582776
5.4554124 0.78835148 -0.37013739
5.4613705 0.78270286 -0.37178162
5.4154038 0.80681562 -0.37853462
5.3953748 0.82927269 -0.37076247
5.2539783 0.93693471 -0.37819955
5.21557 0.96810544 -0.37703669
5.3053498 1.0343727 -0.37419149
5.2910371 1.0760856 -0.37040502
5.3633928 1.0985785 -0.37420192
5.3062463 1.1315408 -0.37087932
5.3364701 1.1380949 -0.37538064
5.3423371 1.1475666 -0.37869549
5.3219161 1.1633258 -0.37906119
5.3469515 1.1735401 -0.37927133
5.4020729 1.2072409 -0.37062803
3.246403 1.3898883 -0.37446195
3.2128136 1.3906878 -0.37247312
3.2242649 1.3952898 -0.37598771
3.2181115 1.4088806 -0.37903661
3.3251035 1.4196532 -0.37434959
3.3168383 1.4321245 -0.37680358
3.2039695 1.4474515 -0.37871808
3.2688675 1.4403094 -0.37963545
3.2923632 1.4420501 -0.37455678
3.3127887 1.455615 -0.37693119
3.375679 1.4556806 -0.37178797
3.3575168 1.4950671 -0.37419683
3.1201601 1.5140928 -0.3735303
3.0934546 1.5342373 -0.37334377
3.0890298 1.5407168 -0.37292129
3.0619185 1.5596581 -0.37725094
3.2854121 1.5690378 -0.37947518
3.0590611 1.5757627 -0.3744823
3.2667065 1.6072235 -0.37588626
3.0304091 1.6130388 -0.37272754
2.9670908 1.6385587 -0.37915283
2.9765816 1.6484952 -0.37989295
3.0029931 1.6512353 -0.37511492
2.969197 1.6942967 -0.37068272
2.6796188 1.7152228 -0.37844837
2.6773312 1.7208707 -0.37890902
3.0919554 1.7996337 -0.37441644
3.0696499 1.8124325 -0.3767336
5.2036157 3.8400273 -0.37470633
1.8255732 -0.56145668 -0.36587021
1.8325683 -0.54405028 -0.36819199
1.8335056 -0.52501422 -0.36980906
2.8896718 -0.22719349 -0.36988345
2.870003 -0.21785115 -0.36550713
3.1373301 -0.19021381 -0.36739647
3.1581695 -0.17555216 -0.36517635
3.1914623 -0.1707343 -0.36345872
2.8830516 -0.16525747 -0.36782363
3.1450164 -0.16825412 -0.36321536
3.1734636 -0.16295812 -0.3607817
3.1854448 -0.16885047 -0.36161441
3.1475773 -0.10941005 -0.36439854
3.2069666 -0.095417231 -0.36656597
2.864641 -0.083409905 -0.36975133
3.1041374 -0.041215129 -0.36216801
3.1046648 -0.031928685 -0.36741412
3.138267 -0.027525093 -0.36858231
2.8031361 0.012858169 -0.3673692
3.0889308 0.018873496 -0.36640605
2.8312657 0.022223687 -0.36407596
2.8933194 0.027419694 -0.36833441
