# .PCD v0.7 - Point Cloud Data file format
VERSION 0.7
FIELDS x y z
SIZE 4 4 4
TYPE F F F
COUNT 1 1 1
WIDTH 1956
HEIGHT 1
VIEWPOINT 0 0 0 1 0 0 0
POINTS 1956
DATA ascii
4.9616771 4.2514729 0
4.9616771 4.231473 0
4.9616771 4.211473 0
4.9616771 4.191473 0
4.9616771 4.171473 0
4.9616771 4.151473 0
4.9616771 4.1314731 0
4.9616771 4.1114731 0
4.9616771 4.0914731 0
4.9616771 4.0714731 0
4.9616771 4.0514731 0
4.9616771 4.0314732 0
4.9616771 4.0114732 0
4.9616771 3.991473 0
4.9616771 3.971473 0
4.9616771 3.951473 0
4.9616771 3.931473 0
4.9616771 3.911473 0
4.9616771 3.8914731 0
4.9616771 3.8714728 0
4.9616771 3.8514729 0
4.9616771 3.8314729 0
4.9616771 3.8114729 0
4.9616771 3.7914729 0
4.9616771 3.7714729 0
4.9616771 3.7514729 0
4.9616771 3.731473 0
4.9616771 3.711473 0
4.9616771 3.691473 0
4.9616771 3.671473 0
4.9616771 3.651473 0
4.9616771 3.6314731 0
4.9616771 3.6114728 0
4.9616771 3.5914729 0
4.9616771 3.5714729 0
4.9616771 3.5514729 0
4.9616771 3.5314729 0
4.9616771 3.5114729 0.069238417
4.9616771 3.491473 0.16815045
4.9616771 3.471473 0.20771526
4.9616771 3.451473 0.19782406
4.9616771 3.431473 0.20771526
4.9616771 3.411473 0.23738886
4.9616771 3.3914731 0.23986167
4.9616771 3.3714728 0.23986167
4.9616771 3.3514729 0.21018806
4.9616771 3.3314729 0.17062324
4.9616771 3.3114729 0.17062324
4.9616771 3.2914729 0.21266086
4.9616771 3.2714729 0.24233447
4.9616771 3.2514729 0.23986167
4.9616771 3.231473 0.23986167
4.9616771 3.211473 0.23986167
4.9616771 3.191473 0.23986167
4.9616771 3.171473 0.21018806
4.9616771 3.151473 0.19535126
4.9616771 3.1314731 0.17804165
4.9616771 3.1114728 0.15331364
4.9616771 3.0914729 0.11374883
4.9616771 3.0714729 0.10138483
4.9616771 3.0514729 0.11869443
4.9616771 3.0314729 0.14094964
4.9616771 3.0114729 0.16073205
4.9616771 2.991473 0.16073205
4.9616771 2.971473 0.16073205
4.9616771 2.951473 0.14342244
4.9616771 2.931473 0.13353123
4.9616771 2.911473 0.14342244
4.9616771 2.8914731 0.16320485
4.9616771 2.8714728 0.16320485
4.9616771 2.8514729 0.13600403
4.9616771 2.8314729 0.12364003
4.9616771 2.8114729 0.12116724
4.9616771 2.7914729 0.14342244
4.9616771 2.7714729 0.14836803
4.9616771 2.7514729 0.14094964
4.9616771 2.731473 0.11127603
4.9616771 2.711473 0.091493629
4.9616771 2.691473 0.079129621
4.9616771 2.671473 0.074184015
4.9616771 2.651473 0.074184015
4.9616771 2.6314731 0.081602424
4.9616771 2.6114728 0.074184015
4.9616771 2.5914729 0.07171122
4.9616771 2.5714729 0.066765614
4.9616771 2.5514729 0.066765614
4.9616771 2.5314729 0.059347216
4.9616771 2.5114729 0.059347216
4.9616771 2.491473 0.046983212
4.9616771 2.471473 0.037092008
4.9616771 2.451473 0.022255206
4.9616771 2.431473 0.022255206
4.9616771 2.411473 0.022255206
4.9616771 2.3914731 0.014836804
4.9616771 2.3714728 0.0049456013
4.9616771 2.3514729 0
4.9616771 2.3314729 0
4.9616771 2.3114729 0
4.9616771 2.2914729 0
4.9616771 2.2714729 0
4.9616771 2.2514729 0
4.9616771 2.231473 0
4.9616771 2.211473 0
4.9616771 2.191473 0
4.9616771 2.171473 0
4.9616771 2.151473 0
4.9616771 2.1314731 0
4.9616771 2.1114728 0
4.9616771 2.0914729 0
4.9616771 2.0714729 0
4.9616771 2.0514729 0
4.9616771 2.0314729 0
4.9616771 2.0114729 0
4.9616771 1.991473 0
4.9616771 1.971473 0
4.9616771 1.951473 0
4.9616771 1.9314729 0
4.9616771 1.9114729 0
4.9616771 1.8914729 0
4.9616771 1.871473 0
4.9616771 1.851473 0
4.9616771 1.831473 0
4.9616771 1.8114729 0
4.9616771 1.7914729 0
4.9616771 1.7714729 0
4.9616771 1.7514729 0
4.9616771 1.731473 0
4.9616771 1.711473 0
4.9616771 1.691473 0
4.9616771 1.6714729 0
4.9616771 1.6514729 0
4.9616771 1.6314729 0
4.9616771 1.611473 0
4.9616771 1.591473 0
4.9616771 1.571473 0
4.9616771 1.5514729 0
4.9616771 1.5314729 0
4.9616771 1.5114729 0
4.9616771 1.491473 0
4.9616771 1.471473 0
4.9616771 1.451473 0
4.9616771 1.4314729 0
4.9616771 1.4114729 0
4.9616771 1.3914729 0
4.9616771 1.371473 0
4.9616771 1.351473 0
4.9616771 1.331473 0
4.9616771 1.3114729 0
4.9616771 1.2914729 0
4.9616771 1.2714729 0
4.9616771 1.2514729 0
4.9616771 1.231473 0
4.9616771 1.211473 0
4.9616771 1.191473 0
4.9616771 1.1714729 0
4.9616771 1.1514729 0
4.9616771 1.1314729 0
4.9616771 1.111473 0
4.9616771 1.091473 0
4.9616771 1.071473 0
4.9616771 1.0514729 0
4.9616771 1.0314729 0
4.9616771 1.0114729 0
4.9616771 0.99147296 0
4.9616771 0.97147298 0
4.9616771 0.95147294 0
4.9616771 0.93147296 0
4.9616771 0.91147298 0
4.9616771 0.89147294 0
4.9616771 0.87147295 0
4.9616771 0.85147297 0
4.9616771 0.83147293 0
4.9616771 0.81147295 0
4.9616771 0.79147297 0
4.9616771 0.77147293 0
4.9616771 0.75147295 0
4.9616771 0.73147297 0
4.9616771 0.71147293 0
4.9616771 0.69147295 0
4.9616771 0.67147297 0
4.9616771 0.65147293 0
4.9616771 0.63147295 0
4.9616771 0.61147296 0
4.9616771 0.59147292 0
4.9616771 0.57147294 0
4.9616771 0.55147296 0
4.9616771 0.53147292 0
4.9616771 0.51147294 0
4.9616771 0.49147296 0
4.9616771 0.47147295 0
4.9616771 0.45147294 0
4.9616771 0.43147296 0
4.9616771 0.41147295 0
4.9616771 0.39147294 0
4.9616771 0.37147295 0
4.9616771 0.35147294 0
4.9616771 0.33147296 0
4.9616771 0.31147295 0
4.9616771 0.29147294 0
4.9616771 0.27147296 0
4.9616771 0.25147295 0
4.9616771 0.23147295 0
4.9616771 0.21147294 0
4.9616771 0.19147295 0
4.9616771 0.17147295 0
4.9616771 0.15147296 0
4.9616771 0.13147295 0
4.9616771 0.11147295 0
4.9616771 0.091472954 0
4.9616771 0.07147295 0
4.9616771 0.051472951 0
4.9616771 0.031472951 0
4.9616771 0.01147295 0
4.9616771 -0.0085270498 0
4.9616771 -0.028527049 0
4.9616771 -0.048527051 0
4.9616771 -0.06852705 0
4.9616771 -0.088527054 0
4.9616771 -0.10852705 0
4.9616771 -0.12852705 0
4.9616771 -0.14852706 0
4.9616771 -0.16852705 0
4.9616771 -0.18852705 0
4.9616771 -0.20852704 0
4.9616771 -0.22852705 0
4.9616771 -0.24852705 0
4.9616771 -0.26852706 0
4.9616771 -0.28852704 0
4.9616771 -0.30852705 0
4.9616771 -0.32852706 0
4.9616771 -0.34852704 0
4.9616771 -0.36852705 0
4.9616771 -0.38852704 0
4.9616771 -0.40852705 0
4.9616771 -0.42852706 0
4.9616771 -0.44852704 0
4.9616771 -0.46852705 0
4.9616771 -0.48852706 0
4.9616771 -0.50852704 0
4.9616771 -0.52852702 0
4.9616771 -0.54852706 0
4.9616771 -0.56852704 0
4.9616771 -0.58852702 0
4.9616771 -0.60852706 0
4.9616771 -0.62852705 0
4.9616771 -0.64852703 0
4.9416771 5.151473 0
4.9416771 5.1314731 0
4.9416771 5.1114731 0
4.9416771 5.0914731 0
4.9416771 5.0714731 0
4.9416771 5.0514731 0
4.9416771 5.0314732 0
4.9416771 5.0114732 0
4.9416771 4.9914727 0
4.9416771 4.9714727 0
4.9416771 4.9514728 0
4.9416771 4.9314728 0
4.9416771 4.9114728 0
4.9416771 4.8914728 0
4.9416771 4.8714728 0
4.9416771 4.8514729 0
4.9416771 4.8314729 0
4.9416771 4.8114729 0
4.9416771 4.7914729 0
4.9416771 4.7714729 0
4.9416771 4.7514729 0
4.9416771 4.731473 0
4.9416771 4.711473 0
4.9416771 4.691473 0
4.9416771 4.671473 0
4.9416771 4.651473 0
4.9416771 4.6314731 0
4.9416771 4.6114731 0
4.9416771 4.5914731 0
4.9416771 4.5714731 0
4.9416771 4.5514731 0
4.9416771 4.5314732 0
4.9416771 4.5114732 0
4.9416771 4.4914727 0
4.9416771 4.4714727 0
4.9416771 4.4514728 0
4.9416771 4.4314728 0
4.9416771 4.4114728 0
4.9416771 4.3914728 0
4.9416771 4.3714728 0
4.9416771 4.3514729 0
4.9416771 4.3314729 0
4.9416771 4.3114729 0
4.9416771 4.2914729 0
4.9416771 4.2714729 0
4.9416771 4.2514729 0
4.9416771 4.231473 0
4.9416771 4.211473 0
4.9416771 4.191473 0
4.9416771 4.171473 0
4.9416771 4.151473 0
4.9416771 4.1314731 0
4.9416771 4.1114731 0
4.9416771 4.0914731 0
4.9416771 4.0714731 0
4.9416771 4.0514731 0
4.9416771 4.0314732 0
4.9416771 4.0114732 0
4.9416771 3.991473 0
4.9416771 3.971473 0
4.9416771 3.951473 0
4.9416771 3.931473 0
4.9416771 3.911473 0
4.9416771 3.8914731 0
4.9416771 3.8714728 0
4.9416771 3.8514729 0
4.9416771 3.8314729 0
4.9416771 3.8114729 0
4.9416771 3.7914729 0
4.9416771 3.7714729 0
4.9416771 3.7514729 0
4.9416771 3.731473 0
4.9416771 3.711473 0
4.9416771 3.691473 0
4.9416771 3.671473 0
4.9416771 3.651473 0
4.9416771 3.6314731 0
4.9416771 3.6114728 0
4.9416771 3.5914729 0
4.9416771 3.5714729 0
4.9416771 3.5514729 0
4.9416771 3.5314729 0
4.9416771 3.5114729 0.069238417
4.9416771 3.491473 0.14836803
4.9416771 3.471473 0.18793285
4.9416771 3.451473 0.16815045
4.9416771 3.431473 0.18793285
4.9416771 3.411473 0.19782406
4.9416771 3.3914731 0.21018806
4.9416771 3.3714728 0.19782406
4.9416771 3.3514729 0.19040565
4.9416771 3.3314729 0.14836803
4.9416771 3.3114729 0.16073205
4.9416771 3.2914729 0.20029685
4.9416771 3.2714729 0.23986167
4.9416771 3.2514729 0.23986167
4.9416771 3.231473 0.23986167
4.9416771 3.211473 0.23986167
4.9416771 3.191473 0.23986167
4.9416771 3.171473 0.22007926
4.9416771 3.151473 0.20771526
4.9416771 3.1314731 0.17556885
4.9416771 3.1114728 0.14342244
4.9416771 3.0914729 0.11127603
4.9416771 3.0714729 0.11374883
4.9416771 3.0514729 0.12611283
4.9416771 3.0314729 0.14589524
4.9416771 3.0114729 0.14589524
4.9416771 2.991473 0.14094964
4.9416771 2.971473 0.14836803
4.9416771 2.951473 0.13353123
4.9416771 2.931473 0.12364003
4.9416771 2.911473 0.13353123
4.9416771 2.8914731 0.16320485
4.9416771 2.8714728 0.16320485
4.9416771 2.8514729 0.12858564
4.9416771 2.8314729 0.10138483
4.9416771 2.8114729 0.089020826
4.9416771 2.7914729 0.12116724
4.9416771 2.7714729 0.14342244
4.9416771 2.7514729 0.14342244
4.9416771 2.731473 0.11127603
4.9416771 2.711473 0.086548023
4.9416771 2.691473 0.07171122
4.9416771 2.671473 0.069238417
4.9416771 2.651473 0.064292818
4.9416771 2.6314731 0.064292818
4.9416771 2.6114728 0.066765614
4.9416771 2.5914729 0.076656818
4.9416771 2.5714729 0.076656818
4.9416771 2.5514729 0.066765614
4.9416771 2.5314729 0.059347216
4.9416771 2.5114729 0.064292818
4.9416771 2.491473 0.066765614
4.9416771 2.471473 0.064292818
4.9416771 2.451473 0.056874417
4.9416771 2.431473 0.049456015
4.9416771 2.411473 0.044510413
4.9416771 2.3914731 0.029673608
4.9416771 2.3714728 0.019782405
4.9416771 2.3514729 0.007418402
4.9416771 2.3314729 0.0098912027
4.9416771 2.3114729 0.007418402
4.9416771 2.2914729 0.012364004
4.9416771 2.2714729 0.007418402
4.9416771 2.2514729 0.0049456013
4.9416771 2.231473 0
4.9416771 2.211473 0
4.9416771 2.191473 0
4.9416771 2.171473 0
4.9416771 2.151473 0
4.9416771 2.1314731 0
4.9416771 2.1114728 0
4.9416771 2.0914729 0
4.9416771 2.0714729 0
4.9416771 2.0514729 0
4.9416771 2.0314729 0
4.9416771 2.0114729 0
4.9416771 1.991473 0
4.9416771 1.971473 0
4.9416771 1.951473 0
4.9416771 1.9314729 0
4.9416771 1.9114729 0
4.9416771 1.8914729 0
4.9416771 1.871473 0
4.9416771 1.851473 0
4.9416771 1.831473 0
4.9416771 1.8114729 0
4.9416771 1.7914729 0
4.9416771 1.7714729 0
4.9416771 1.7514729 0
4.9416771 1.731473 0
4.9416771 1.711473 0
4.9416771 1.691473 0
4.9416771 1.6714729 0
4.9416771 1.6514729 0
4.9416771 1.6314729 0
4.9416771 1.611473 0
4.9416771 1.591473 0
4.9416771 1.571473 0
4.9416771 1.5514729 0
4.9416771 1.5314729 0
4.9416771 1.5114729 0
4.9416771 1.491473 0
4.9416771 1.471473 0
4.9416771 1.451473 0
4.9416771 1.4314729 0
4.9416771 1.4114729 0
4.9416771 1.3914729 0
4.9416771 1.371473 0
4.9416771 1.351473 0
4.9416771 1.331473 0
4.9416771 1.3114729 0
4.9416771 1.2914729 0
4.9416771 1.2714729 0
4.9416771 1.2514729 0
4.9416771 1.231473 0
4.9416771 1.211473 0
4.9416771 1.191473 0
4.9416771 1.1714729 0
4.9416771 1.1514729 0
4.9416771 1.1314729 0
4.9416771 1.111473 0
4.9416771 1.091473 0
4.9416771 1.071473 0
4.9416771 1.0514729 0
4.9416771 1.0314729 0
4.9416771 1.0114729 0
4.9416771 0.99147296 0
4.9416771 0.97147298 0
4.9416771 0.95147294 0
4.9416771 0.93147296 0
4.9416771 0.91147298 0
4.9416771 0.89147294 0
4.9416771 0.87147295 0
4.9416771 0.85147297 0
4.9416771 0.83147293 0
4.9416771 0.81147295 0
4.9416771 0.79147297 0
4.9416771 0.77147293 0
4.9416771 0.75147295 0
4.9416771 0.73147297 0
4.9416771 0.71147293 0
4.9416771 0.69147295 0
4.9416771 0.67147297 0
4.9416771 0.65147293 0
4.9416771 0.63147295 0
4.9416771 0.61147296 0
4.9416771 0.59147292 0
4.9416771 0.57147294 0
4.9416771 0.55147296 0
4.9416771 0.53147292 0
4.9416771 0.51147294 0
4.9416771 0.49147296 0
4.9416771 0.47147295 0
4.9416771 0.45147294 0
4.9416771 0.43147296 0
4.9416771 0.41147295 0
4.9416771 0.39147294 0
4.9416771 0.37147295 0
4.9416771 0.35147294 0
4.9416771 0.33147296 0
4.9416771 0.31147295 0
4.9416771 0.29147294 0
4.9416771 0.27147296 0
4.9416771 0.25147295 0
4.9416771 0.23147295 0
4.9416771 0.21147294 0
4.9416771 0.19147295 0
4.9416771 0.17147295 0
4.9416771 0.15147296 0
4.9416771 0.13147295 0
4.9416771 0.11147295 0
4.9416771 0.091472954 0
4.9416771 0.07147295 0
4.9416771 0.051472951 0
4.9416771 0.031472951 0
4.9416771 0.01147295 0
4.9416771 -0.0085270498 0
4.9416771 -0.028527049 0
4.9416771 -0.048527051 0
4.9416771 -0.06852705 0
4.9416771 -0.088527054 0
4.9416771 -0.10852705 0
4.9416771 -0.12852705 0
4.9416771 -0.14852706 0
4.9416771 -0.16852705 0
4.9416771 -0.18852705 0
4.9416771 -0.20852704 0
4.9416771 -0.22852705 0
4.9416771 -0.24852705 0
4.9416771 -0.26852706 0
4.9416771 -0.28852704 0
4.9416771 -0.30852705 0
4.9416771 -0.32852706 0
4.9416771 -0.34852704 0
4.9416771 -0.36852705 0
4.9416771 -0.38852704 0
4.9416771 -0.40852705 0
4.9416771 -0.42852706 0
4.9416771 -0.44852704 0
4.9416771 -0.46852705 0
4.9416771 -0.48852706 0
4.9416771 -0.50852704 0
4.9416771 -0.52852702 0
4.9416771 -0.54852706 0
4.9416771 -0.56852704 0
4.9416771 -0.58852702 0
4.9416771 -0.60852706 0
4.9416771 -0.62852705 0
4.9416771 -0.64852703 0
4.9216771 5.151473 0
4.9216771 5.1314731 0
4.9216771 5.1114731 0
4.9216771 5.0914731 0
4.9216771 5.0714731 0
4.9216771 5.0514731 0
4.9216771 5.0314732 0
4.9216771 5.0114732 0
4.9216771 4.9914727 0
4.9216771 4.9714727 0
4.9216771 4.9514728 0
4.9216771 4.9314728 0
4.9216771 4.9114728 0
4.9216771 4.8914728 0
4.9216771 4.8714728 0
4.9216771 4.8514729 0
4.9216771 4.8314729 0
4.9216771 4.8114729 0
4.9216771 4.7914729 0
4.9216771 4.7714729 0
4.9216771 4.7514729 0
4.9216771 4.731473 0
4.9216771 4.711473 0
4.9216771 4.691473 0
4.9216771 4.671473 0
4.9216771 4.651473 0
4.9216771 4.6314731 0
4.9216771 4.6114731 0
4.9216771 4.5914731 0
4.9216771 4.5714731 0
4.9216771 4.5514731 0
4.9216771 4.5314732 0
4.9216771 4.5114732 0
4.9216771 4.4914727 0
4.9216771 4.4714727 0
4.9216771 4.4514728 0
4.9216771 4.4314728 0
4.9216771 4.4114728 0
4.9216771 4.3914728 0
4.9216771 4.3714728 0
4.9216771 4.3514729 0
4.9216771 4.3314729 0
4.9216771 4.3114729 0
4.9216771 4.2914729 0
4.9216771 4.2714729 0
4.9216771 4.2514729 0
4.9216771 4.231473 0
4.9216771 4.211473 0
4.9216771 4.191473 0
4.9216771 4.171473 0
4.9216771 4.151473 0
4.9216771 4.1314731 0
4.9216771 4.1114731 0
4.9216771 4.0914731 0
4.9216771 4.0714731 0
4.9216771 4.0514731 0
4.9216771 4.0314732 0
4.9216771 4.0114732 0
4.9216771 3.991473 0
4.9216771 3.971473 0
4.9216771 3.951473 0
4.9216771 3.931473 0
4.9216771 3.911473 0
4.9216771 3.8914731 0
4.9216771 3.8714728 0
4.9216771 3.8514729 0
4.9216771 3.8314729 0
4.9216771 3.8114729 0
4.9216771 3.7914729 0
4.9216771 3.7714729 0
4.9216771 3.7514729 0
4.9216771 3.731473 0
4.9216771 3.711473 0
4.9216771 3.691473 0
4.9216771 3.671473 0
4.9216771 3.651473 0
4.9216771 3.6314731 0
4.9216771 3.6114728 0
4.9216771 3.5914729 0
4.9216771 3.5714729 0
4.9216771 3.5514729 0
4.9216771 3.5314729 0.019782405
4.9216771 3.5114729 0.09891203
4.9216771 3.491473 0.15825924
4.9216771 3.471473 0.19782406
4.9216771 3.451473 0.18051445
4.9216771 3.431473 0.19782406
4.9216771 3.411473 0.18051445
4.9216771 3.3914731 0.19782406
4.9216771 3.3714728 0.18051445
4.9216771 3.3514729 0.17804165
4.9216771 3.3314729 0.15331364
4.9216771 3.3114729 0.17804165
4.9216771 3.2914729 0.19040565
4.9216771 3.2714729 0.21018806
4.9216771 3.2514729 0.22007926
4.9216771 3.231473 0.23986167
4.9216771 3.211473 0.23986167
4.9216771 3.191473 0.23986167
4.9216771 3.171473 0.23986167
4.9216771 3.151473 0.23738886
4.9216771 3.1314731 0.20029685
4.9216771 3.1114728 0.16320485
4.9216771 3.0914729 0.12858564
4.9216771 3.0714729 0.11869443
4.9216771 3.0514729 0.12116724
4.9216771 3.0314729 0.14589524
4.9216771 3.0114729 0.14094964
4.9216771 2.991473 0.13353123
4.9216771 2.971473 0.14094964
4.9216771 2.951473 0.14094964
4.9216771 2.931473 0.13353123
4.9216771 2.911473 0.14094964
4.9216771 2.8914731 0.16073205
4.9216771 2.8714728 0.16320485
4.9216771 2.8514729 0.12858564
4.9216771 2.8314729 0.096439227
4.9216771 2.8114729 0.086548023
4.9216771 2.7914729 0.12364003
4.9216771 2.7714729 0.13600403
4.9216771 2.7514729 0.13847683
4.9216771 2.731473 0.12116724
4.9216771 2.711473 0.10385763
4.9216771 2.691473 0.079129621
4.9216771 2.671473 0.07171122
4.9216771 2.651473 0.064292818
4.9216771 2.6314731 0.051928815
4.9216771 2.6114728 0.049456015
4.9216771 2.5914729 0.066765614
4.9216771 2.5714729 0.084075227
4.9216771 2.5514729 0.074184015
4.9216771 2.5314729 0.069238417
4.9216771 2.5114729 0.074184015
4.9216771 2.491473 0.084075227
4.9216771 2.471473 0.084075227
4.9216771 2.451473 0.081602424
4.9216771 2.431473 0.07171122
4.9216771 2.411473 0.061820015
4.9216771 2.3914731 0.046983212
4.9216771 2.3714728 0.042037614
4.9216771 2.3514729 0.029673608
4.9216771 2.3314729 0.034619208
4.9216771 2.3114729 0.024728008
4.9216771 2.2914729 0.027200807
4.9216771 2.2714729 0.027200807
4.9216771 2.2514729 0.022255206
4.9216771 2.231473 0.012364004
4.9216771 2.211473 0.007418402
4.9216771 2.191473 0.0049456013
4.9216771 2.171473 0
4.9216771 2.151473 0
4.9216771 2.1314731 0
4.9216771 2.1114728 0
4.9216771 2.0914729 0
4.9216771 2.0714729 0
4.9216771 2.0514729 0
4.9216771 2.0314729 0
4.9216771 2.0114729 0
4.9216771 1.991473 0
4.9216771 1.971473 0
4.9216771 1.951473 0
4.9216771 1.9314729 0
4.9216771 1.9114729 0
4.9216771 1.8914729 0
4.9216771 1.871473 0
4.9216771 1.851473 0
4.9216771 1.831473 0
4.9216771 1.8114729 0
4.9216771 1.7914729 0
4.9216771 1.7714729 0
4.9216771 1.7514729 0
4.9216771 1.731473 0
4.9216771 1.711473 0
4.9216771 1.691473 0
4.9216771 1.6714729 0
4.9216771 1.6514729 0
4.9216771 1.6314729 0
4.9216771 1.611473 0
4.9216771 1.591473 0
4.9216771 1.571473 0
4.9216771 1.5514729 0
4.9216771 1.5314729 0
4.9216771 1.5114729 0
4.9216771 1.491473 0
4.9216771 1.471473 0
4.9216771 1.451473 0
4.9216771 1.4314729 0
4.9216771 1.4114729 0
4.9216771 1.3914729 0
4.9216771 1.371473 0
4.9216771 1.351473 0
4.9216771 1.331473 0
4.9216771 1.3114729 0
4.9216771 1.2914729 0
4.9216771 1.2714729 0
4.9216771 1.2514729 0
4.9216771 1.231473 0
4.9216771 1.211473 0
4.9216771 1.191473 0
4.9216771 1.1714729 0
4.9216771 1.1514729 0
4.9216771 1.1314729 0
4.9216771 1.111473 0
4.9216771 1.091473 0
4.9216771 1.071473 0
4.9216771 1.0514729 0
4.9216771 1.0314729 0
4.9216771 1.0114729 0
4.9216771 0.99147296 0
4.9216771 0.97147298 0
4.9216771 0.95147294 0
4.9216771 0.93147296 0
4.9216771 0.91147298 0
4.9216771 0.89147294 0
4.9216771 0.87147295 0
4.9216771 0.85147297 0
4.9216771 0.83147293 0
4.9216771 0.81147295 0
4.9216771 0.79147297 0
4.9216771 0.77147293 0
4.9216771 0.75147295 0
4.9216771 0.73147297 0
4.9216771 0.71147293 0
4.9216771 0.69147295 0
4.9216771 0.67147297 0
4.9216771 0.65147293 0
4.9216771 0.63147295 0
4.9216771 0.61147296 0
4.9216771 0.59147292 0
4.9216771 0.57147294 0
4.9216771 0.55147296 0
4.9216771 0.53147292 0
4.9216771 0.51147294 0
4.9216771 0.49147296 0
4.9216771 0.47147295 0
4.9216771 0.45147294 0
4.9216771 0.43147296 0
4.9216771 0.41147295 0
4.9216771 0.39147294 0
4.9216771 0.37147295 0
4.9216771 0.35147294 0
4.9216771 0.33147296 0
4.9216771 0.31147295 0
4.9216771 0.29147294 0
4.9216771 0.27147296 0
4.9216771 0.25147295 0
4.9216771 0.23147295 0
4.9216771 0.21147294 0
4.9216771 0.19147295 0
4.9216771 0.17147295 0
4.9216771 0.15147296 0
4.9216771 0.13147295 0
4.9216771 0.11147295 0
4.9216771 0.091472954 0
4.9216771 0.07147295 0
4.9216771 0.051472951 0
4.9216771 0.031472951 0
4.9216771 0.01147295 0
4.9216771 -0.0085270498 0
4.9216771 -0.028527049 0
4.9216771 -0.048527051 0
4.9216771 -0.06852705 0
4.9216771 -0.088527054 0
4.9216771 -0.10852705 0
4.9216771 -0.12852705 0
4.9216771 -0.14852706 0
4.9216771 -0.16852705 0
4.9216771 -0.18852705 0
4.9216771 -0.20852704 0
4.9216771 -0.22852705 0
4.9216771 -0.24852705 0
4.9216771 -0.26852706 0
4.9216771 -0.28852704 0
4.9216771 -0.30852705 0
4.9216771 -0.32852706 0
4.9216771 -0.34852704 0
4.9216771 -0.36852705 0
4.9216771 -0.38852704 0
4.9216771 -0.40852705 0
4.9216771 -0.42852706 0
4.9216771 -0.44852704 0
4.9216771 -0.46852705 0
4.9216771 -0.48852706 0
4.9216771 -0.50852704 0
4.9216771 -0.52852702 0
4.9216771 -0.54852706 0
4.9216771 -0.56852704 0
4.9216771 -0.58852702 0
4.9216771 -0.60852706 0
4.9216771 -0.62852705 0
4.9216771 -0.64852703 0
4.9016771 5.151473 0
4.9016771 5.1314731 0
4.9016771 5.1114731 0
4.9016771 5.0914731 0
4.9016771 5.0714731 0
4.9016771 5.0514731 0
4.9016771 5.0314732 0
4.9016771 5.0114732 0
4.9016771 4.9914727 0
4.9016771 4.9714727 0
4.9016771 4.9514728 0
4.9016771 4.9314728 0
4.9016771 4.9114728 0
4.9016771 4.8914728 0
4.9016771 4.8714728 0
4.9016771 4.8514729 0
4.9016771 4.8314729 0
4.9016771 4.8114729 0
4.9016771 4.7914729 0
4.9016771 4.7714729 0
4.9016771 4.7514729 0
4.9016771 4.731473 0
4.9016771 4.711473 0
4.9016771 4.691473 0
4.9016771 4.671473 0
4.9016771 4.651473 0
4.9016771 4.6314731 0
4.9016771 4.6114731 0
4.9016771 4.5914731 0
4.9016771 4.5714731 0
4.9016771 4.5514731 0
4.9016771 4.5314732 0
4.9016771 4.5114732 0
4.9016771 4.4914727 0
4.9016771 4.4714727 0
4.9016771 4.4514728 0
4.9016771 4.4314728 0
4.9016771 4.4114728 0
4.9016771 4.3914728 0
4.9016771 4.3714728 0
4.9016771 4.3514729 0
4.9016771 4.3314729 0
4.9016771 4.3114729 0
4.9016771 4.2914729 0
4.9016771 4.2714729 0
4.9016771 4.2514729 0
4.9016771 4.231473 0
4.9016771 4.211473 0
4.9016771 4.191473 0
4.9016771 4.171473 0
4.9016771 4.151473 0
4.9016771 4.1314731 0
4.9016771 4.1114731 0
4.9016771 4.0914731 0
4.9016771 4.0714731 0
4.9016771 4.0514731 0
4.9016771 4.0314732 0
4.9016771 4.0114732 0
4.9016771 3.991473 0
4.9016771 3.971473 0
4.9016771 3.951473 0
4.9016771 3.931473 0
4.9016771 3.911473 0
4.9016771 3.8914731 0
4.9016771 3.8714728 0
4.9016771 3.8514729 0
4.9016771 3.8314729 0
4.9016771 3.8114729 0
4.9016771 3.7914729 0
4.9016771 3.7714729 0
4.9016771 3.7514729 0
4.9016771 3.731473 0
4.9016771 3.711473 0
4.9016771 3.691473 0
4.9016771 3.671473 0
4.9016771 3.651473 0
4.9016771 3.6314731 0
4.9016771 3.6114728 0
4.9016771 3.5914729 0
4.9016771 3.5714729 0
4.9016771 3.5514729 0.019782405
4.9016771 3.5314729 0.079129621
4.9016771 3.5114729 0.16073205
4.9016771 3.491473 0.19782406
4.9016771 3.471473 0.18793285
4.9016771 3.451473 0.16815045
4.9016771 3.431473 0.18793285
4.9016771 3.411473 0.19782406
4.9016771 3.3914731 0.21018806
4.9016771 3.3714728 0.19782406
4.9016771 3.3514729 0.18051445
4.9016771 3.3314729 0.15825924
4.9016771 3.3114729 0.16073205
4.9016771 3.2914729 0.16073205
4.9016771 3.2714729 0.17804165
4.9016771 3.2514729 0.21018806
4.9016771 3.231473 0.23986167
4.9016771 3.211473 0.23986167
4.9016771 3.191473 0.23986167
4.9016771 3.171473 0.23986167
4.9016771 3.151473 0.23244326
4.9016771 3.1314731 0.20771526
4.9016771 3.1114728 0.17804165
4.9016771 3.0914729 0.14589524
4.9016771 3.0714729 0.10633043
4.9016771 3.0514729 0.09891203
4.9016771 3.0314729 0.11374883
4.9016771 3.0114729 0.12611283
4.9016771 2.991473 0.12858564
4.9016771 2.971473 0.14836803
4.9016771 2.951473 0.14836803
4.9016771 2.931473 0.14094964
4.9016771 2.911473 0.14836803
4.9016771 2.8914731 0.16073205
4.9016771 2.8714728 0.16320485
4.9016771 2.8514729 0.14836803
4.9016771 2.8314729 0.11374883
4.9016771 2.8114729 0.10880323
4.9016771 2.7914729 0.13600403
4.9016771 2.7714729 0.14342244
4.9016771 2.7514729 0.13105844
4.9016771 2.731473 0.12611283
4.9016771 2.711473 0.12116724
4.9016771 2.691473 0.096439227
4.9016771 2.671473 0.081602424
4.9016771 2.651473 0.074184015
4.9016771 2.6314731 0.054401614
4.9016771 2.6114728 0.044510413
4.9016771 2.5914729 0.049456015
4.9016771 2.5714729 0.066765614
4.9016771 2.5514729 0.069238417
4.9016771 2.5314729 0.07171122
4.9016771 2.5114729 0.076656818
4.9016771 2.491473 0.084075227
4.9016771 2.471473 0.084075227
4.9016771 2.451473 0.084075227
4.9016771 2.431473 0.074184015
4.9016771 2.411473 0.061820015
4.9016771 2.3914731 0.044510413
4.9016771 2.3714728 0.039564811
4.9016771 2.3514729 0.039564811
4.9016771 2.3314729 0.051928815
4.9016771 2.3114729 0.049456015
4.9016771 2.2914729 0.049456015
4.9016771 2.2714729 0.049456015
4.9016771 2.2514729 0.046983212
4.9016771 2.231473 0.039564811
4.9016771 2.211473 0.034619208
4.9016771 2.191473 0.032146409
4.9016771 2.171473 0.022255206
4.9016771 2.151473 0.014836804
4.9016771 2.1314731 0.0049456013
4.9016771 2.1114728 0
4.9016771 2.0914729 0
4.9016771 2.0714729 0
4.9016771 2.0514729 0
4.9016771 2.0314729 0
4.9016771 2.0114729 0
4.9016771 1.991473 0
4.9016771 1.971473 0
4.9016771 1.951473 0
4.9016771 1.9314729 0
4.9016771 1.9114729 0
4.9016771 1.8914729 0
4.9016771 1.871473 0
4.9016771 1.851473 0
4.9016771 1.831473 0
4.9016771 1.8114729 0
4.9016771 1.7914729 0
4.9016771 1.7714729 0
4.9016771 1.7514729 0
4.9016771 1.731473 0
4.9016771 1.711473 0
4.9016771 1.691473 0
4.9016771 1.6714729 0
4.9016771 1.6514729 0
4.9016771 1.6314729 0
4.9016771 1.611473 0
4.9016771 1.591473 0
4.9016771 1.571473 0
4.9016771 1.5514729 0
4.9016771 1.5314729 0
4.9016771 1.5114729 0
4.9016771 1.491473 0
4.9016771 1.471473 0
4.9016771 1.451473 0
4.9016771 1.4314729 0
4.9016771 1.4114729 0
4.9016771 1.3914729 0
4.9016771 1.371473 0
4.9016771 1.351473 0
4.9016771 1.331473 0
4.9016771 1.3114729 0
4.9016771 1.2914729 0
4.9016771 1.2714729 0
4.9016771 1.2514729 0
4.9016771 1.231473 0
4.9016771 1.211473 0
4.9016771 1.191473 0
4.9016771 1.1714729 0
4.9016771 1.1514729 0
4.9016771 1.1314729 0
4.9016771 1.111473 0
4.9016771 1.091473 0
4.9016771 1.071473 0
4.9016771 1.0514729 0
4.9016771 1.0314729 0
4.9016771 1.0114729 0
4.9016771 0.99147296 0
4.9016771 0.97147298 0
4.9016771 0.95147294 0
4.9016771 0.93147296 0
4.9016771 0.91147298 0
4.9016771 0.89147294 0
4.9016771 0.87147295 0
4.9016771 0.85147297 0
4.9016771 0.83147293 0
4.9016771 0.81147295 0
4.9016771 0.79147297 0
4.9016771 0.77147293 0
4.9016771 0.75147295 0
4.9016771 0.73147297 0
4.9016771 0.71147293 0
4.9016771 0.69147295 0
4.9016771 0.67147297 0
4.9016771 0.65147293 0
4.9016771 0.63147295 0
4.9016771 0.61147296 0
4.9016771 0.59147292 0
4.9016771 0.57147294 0
4.9016771 0.55147296 0
4.9016771 0.53147292 0
4.9016771 0.51147294 0
4.9016771 0.49147296 0
4.9016771 0.47147295 0
4.9016771 0.45147294 0
4.9016771 0.43147296 0
4.9016771 0.41147295 0
4.9016771 0.39147294 0
4.9016771 0.37147295 0
4.9016771 0.35147294 0
4.9016771 0.33147296 0
4.9016771 0.31147295 0
4.9016771 0.29147294 0
4.9016771 0.27147296 0
4.9016771 0.25147295 0
4.9016771 0.23147295 0
4.9016771 0.21147294 0
4.9016771 0.19147295 0
4.9016771 0.17147295 0
4.9016771 0.15147296 0
4.9016771 0.13147295 0
4.9016771 0.11147295 0
4.9016771 0.091472954 0
4.9016771 0.07147295 0
4.9016771 0.051472951 0
4.9016771 0.031472951 0
4.9016771 0.01147295 0
4.9016771 -0.0085270498 0
4.9016771 -0.028527049 0
4.9016771 -0.048527051 0
4.9016771 -0.06852705 0
4.9016771 -0.088527054 0
4.9016771 -0.10852705 0
4.9016771 -0.12852705 0
4.9016771 -0.14852706 0
4.9016771 -0.16852705 0
4.9016771 -0.18852705 0
4.9016771 -0.20852704 0
4.9016771 -0.22852705 0
4.9016771 -0.24852705 0
4.9016771 -0.26852706 0
4.9016771 -0.28852704 0
4.9016771 -0.30852705 0
4.9016771 -0.32852706 0
4.9016771 -0.34852704 0
4.9016771 -0.36852705 0
4.9016771 -0.38852704 0
4.9016771 -0.40852705 0
4.9016771 -0.42852706 0
4.9016771 -0.44852704 0
4.9016771 -0.46852705 0
4.9016771 -0.48852706 0
4.9016771 -0.50852704 0
4.9016771 -0.52852702 0
4.9016771 -0.54852706 0
4.9016771 -0.56852704 0
4.9016771 -0.58852702 0
4.9016771 -0.60852706 0
4.9016771 -0.62852705 0
4.9016771 -0.64852703 0
4.8816772 5.151473 0
4.8816772 5.1314731 0
4.8816772 5.1114731 0
4.8816772 5.0914731 0
4.8816772 5.0714731 0
4.8816772 5.0514731 0
4.8816772 5.0314732 0
4.8816772 5.0114732 0
4.8816772 4.9914727 0
4.8816772 4.9714727 0
4.8816772 4.9514728 0
4.8816772 4.9314728 0
4.8816772 4.9114728 0
4.8816772 4.8914728 0
4.8816772 4.8714728 0
4.8816772 4.8514729 0
4.8816772 4.8314729 0
4.8816772 4.8114729 0
4.8816772 4.7914729 0
4.8816772 4.7714729 0
4.8816772 4.7514729 0
4.8816772 4.731473 0
4.8816772 4.711473 0
4.8816772 4.691473 0
4.8816772 4.671473 0
4.8816772 4.651473 0
4.8816772 4.6314731 0
4.8816772 4.6114731 0
4.8816772 4.5914731 0
4.8816772 4.5714731 0
4.8816772 4.5514731 0
4.8816772 4.5314732 0
4.8816772 4.5114732 0
4.8816772 4.4914727 0
4.8816772 4.4714727 0
4.8816772 4.4514728 0
4.8816772 4.4314728 0
4.8816772 4.4114728 0
4.8816772 4.3914728 0
4.8816772 4.3714728 0
4.8816772 4.3514729 0
4.8816772 4.3314729 0
4.8816772 4.3114729 0
4.8816772 4.2914729 0
4.8816772 4.2714729 0
4.8816772 4.2514729 0
4.8816772 4.231473 0
4.8816772 4.211473 0
4.8816772 4.191473 0
4.8816772 4.171473 0
4.8816772 4.151473 0
4.8816772 4.1314731 0
4.8816772 4.1114731 0
4.8816772 4.0914731 0
4.8816772 4.0714731 0
4.8816772 4.0514731 0
4.8816772 4.0314732 0
4.8816772 4.0114732 0
4.8816772 3.991473 0
4.8816772 3.971473 0
4.8816772 3.951473 0
4.8816772 3.931473 0
4.8816772 3.911473 0
4.8816772 3.8914731 0
4.8816772 3.8714728 0
4.8816772 3.8514729 0
4.8816772 3.8314729 0
4.8816772 3.8114729 0
4.8816772 3.7914729 0
4.8816772 3.7714729 0
4.8816772 3.7514729 0
4.8816772 3.731473 0
4.8816772 3.711473 0
4.8816772 3.691473 0
4.8816772 3.671473 0
4.8816772 3.651473 0
4.8816772 3.6314731 0
4.8816772 3.6114728 0
4.8816772 3.5914729 0
4.8816772 3.5714729 0
4.8816772 3.5514729 0.029673608
4.8816772 3.5314729 0.11127603
4.8816772 3.5114729 0.19782406
4.8816772 3.491473 0.21760646
4.8816772 3.471473 0.18051445
4.8816772 3.451473 0.17556885
4.8816772 3.431473 0.21018806
4.8816772 3.411473 0.23986167
4.8816772 3.3914731 0.23986167
4.8816772 3.3714728 0.21760646
4.8816772 3.3514729 0.16815045
4.8816772 3.3314729 0.16073205
4.8816772 3.3114729 0.17062324
4.8816772 3.2914729 0.17804165
4.8816772 3.2714729 0.18298726
4.8816772 3.2514729 0.22007926
4.8816772 3.231473 0.23986167
4.8816772 3.211473 0.23986167
4.8816772 3.191473 0.23986167
4.8816772 3.171473 0.23986167
4.8816772 3.151473 0.22749767
4.8816772 3.1314731 0.20029685
4.8816772 3.1114728 0.17309605
4.8816772 3.0914729 0.16073205
4.8816772 3.0714729 0.12611283
4.8816772 3.0514729 0.11127603
4.8816772 3.0314729 0.093966424
4.8816772 3.0114729 0.11374883
4.8816772 2.991473 0.12858564
4.8816772 2.971473 0.16073205
4.8816772 2.951473 0.16073205
4.8816772 2.931473 0.14836803
4.8816772 2.911473 0.14094964
4.8816772 2.8914731 0.14836803
4.8816772 2.8714728 0.14836803
4.8816772 2.8514729 0.12858564
4.8816772 2.8314729 0.10880323
4.8816772 2.8114729 0.12116724
4.8816772 2.7914729 0.14342244
4.8816772 2.7714729 0.14836803
4.8816772 2.7514729 0.13847683
4.8816772 2.731473 0.13105844
4.8816772 2.711473 0.11869443
4.8816772 2.691473 0.086548023
4.8816772 2.671473 0.07171122
4.8816772 2.651473 0.074184015
4.8816772 2.6314731 0.066765614
4.8816772 2.6114728 0.051928815
4.8816772 2.5914729 0.044510413
4.8816772 2.5714729 0.059347216
4.8816772 2.5514729 0.07171122
4.8816772 2.5314729 0.081602424
4.8816772 2.5114729 0.084075227
4.8816772 2.491473 0.084075227
4.8816772 2.471473 0.079129621
4.8816772 2.451473 0.074184015
4.8816772 2.431473 0.069238417
4.8816772 2.411473 0.054401614
4.8816772 2.3914731 0.029673608
4.8816772 2.3714728 0.019782405
4.8816772 2.3514729 0.027200807
4.8816772 2.3314729 0.039564811
4.8816772 2.3114729 0.049456015
4.8816772 2.2914729 0.054401614
4.8816772 2.2714729 0.066765614
4.8816772 2.2514729 0.061820015
4.8816772 2.231473 0.056874417
4.8816772 2.211473 0.059347216
4.8816772 2.191473 0.064292818
4.8816772 2.171473 0.054401614
4.8816772 2.151473 0.044510413
4.8816772 2.1314731 0.024728008
4.8816772 2.1114728 0.0049456013
4.8816772 2.0914729 0
4.8816772 2.0714729 0
4.8816772 2.0514729 0
4.8816772 2.0314729 0
4.8816772 2.0114729 0
4.8816772 1.991473 0
4.8816772 1.971473 0
4.8816772 1.951473 0
4.8816772 1.9314729 0
4.8816772 1.9114729 0
4.8816772 1.8914729 0
4.8816772 1.871473 0
4.8816772 1.851473 0
4.8816772 1.831473 0
4.8816772 1.8114729 0
4.8816772 1.7914729 0
4.8816772 1.7714729 0
4.8816772 1.7514729 0
4.8816772 1.731473 0
4.8816772 1.711473 0
4.8816772 1.691473 0
4.8816772 1.6714729 0
4.8816772 1.6514729 0
4.8816772 1.6314729 0
4.8816772 1.611473 0
4.8816772 1.591473 0
4.8816772 1.571473 0
4.8816772 1.5514729 0
4.8816772 1.5314729 0
4.8816772 1.5114729 0
4.8816772 1.491473 0
4.8816772 1.471473 0
4.8816772 1.451473 0
4.8816772 1.4314729 0
4.8816772 1.4114729 0
4.8816772 1.3914729 0
4.8816772 1.371473 0
4.8816772 1.351473 0
4.8816772 1.331473 0
4.8816772 1.3114729 0
4.8816772 1.2914729 0
4.8816772 1.2714729 0
4.8816772 1.2514729 0
4.8816772 1.231473 0
4.8816772 1.211473 0
4.8816772 1.191473 0
4.8816772 1.1714729 0
4.8816772 1.1514729 0
4.8816772 1.1314729 0
4.8816772 1.111473 0
4.8816772 1.091473 0
4.8816772 1.071473 0
4.8816772 1.0514729 0
4.8816772 1.0314729 0
4.8816772 1.0114729 0
4.8816772 0.99147296 0
4.8816772 0.97147298 0
4.8816772 0.95147294 0
4.8816772 0.93147296 0
4.8816772 0.91147298 0
4.8816772 0.89147294 0
4.8816772 0.87147295 0
4.8816772 0.85147297 0
4.8816772 0.83147293 0
4.8816772 0.81147295 0
4.8816772 0.79147297 0
4.8816772 0.77147293 0
4.8816772 0.75147295 0
4.8816772 0.73147297 0
4.8816772 0.71147293 0
4.8816772 0.69147295 0
4.8816772 0.67147297 0
4.8816772 0.65147293 0
4.8816772 0.63147295 0
4.8816772 0.61147296 0
4.8816772 0.59147292 0
4.8816772 0.57147294 0
4.8816772 0.55147296 0
4.8816772 0.53147292 0
4.8816772 0.51147294 0
4.8816772 0.49147296 0
4.8816772 0.47147295 0
4.8816772 0.45147294 0
4.8816772 0.43147296 0
4.8816772 0.41147295 0
4.8816772 0.39147294 0
4.8816772 0.37147295 0
4.8816772 0.35147294 0
4.8816772 0.33147296 0
4.8816772 0.31147295 0
4.8816772 0.29147294 0
4.8816772 0.27147296 0
4.8816772 0.25147295 0
4.8816772 0.23147295 0
4.8816772 0.21147294 0
4.8816772 0.19147295 0
4.8816772 0.17147295 0
4.8816772 0.15147296 0
4.8816772 0.13147295 0
4.8816772 0.11147295 0
4.8816772 0.091472954 0
4.8816772 0.07147295 0
4.8816772 0.051472951 0
4.8816772 0.031472951 0
4.8816772 0.01147295 0
4.8816772 -0.0085270498 0
4.8816772 -0.028527049 0
4.8816772 -0.048527051 0
4.8816772 -0.06852705 0
4.8816772 -0.088527054 0
4.8816772 -0.10852705 0
4.8816772 -0.12852705 0
4.8816772 -0.14852706 0
4.8816772 -0.16852705 0
4.8816772 -0.18852705 0
4.8816772 -0.20852704 0
4.8816772 -0.22852705 0
4.8816772 -0.24852705 0
4.8816772 -0.26852706 0
4.8816772 -0.28852704 0
4.8816772 -0.30852705 0
4.8816772 -0.32852706 0
4.8816772 -0.34852704 0
4.8816772 -0.36852705 0
4.8816772 -0.38852704 0
4.8816772 -0.40852705 0
4.8816772 -0.42852706 0
4.8816772 -0.44852704 0
4.8816772 -0.46852705 0
4.8816772 -0.48852706 0
4.8816772 -0.50852704 0
4.8816772 -0.52852702 0
4.8816772 -0.54852706 0
4.8816772 -0.56852704 0
4.8816772 -0.58852702 0
4.8816772 -0.60852706 0
4.8816772 -0.62852705 0
4.8816772 -0.64852703 0
4.8616772 5.151473 0
4.8616772 5.1314731 0
4.8616772 5.1114731 0
4.8616772 5.0914731 0
4.8616772 5.0714731 0
4.8616772 5.0514731 0
4.8616772 5.0314732 0
4.8616772 5.0114732 0
4.8616772 4.9914727 0
4.8616772 4.9714727 0
4.8616772 4.9514728 0
4.8616772 4.9314728 0
4.8616772 4.9114728 0
4.8616772 4.8914728 0
4.8616772 4.8714728 0
4.8616772 4.8514729 0
4.8616772 4.8314729 0
4.8616772 4.8114729 0
4.8616772 4.7914729 0
4.8616772 4.7714729 0
4.8616772 4.7514729 0
4.8616772 4.731473 0
4.8616772 4.711473 0
4.8616772 4.691473 0
4.8616772 4.671473 0
4.8616772 4.651473 0
4.8616772 4.6314731 0
4.8616772 4.6114731 0
4.8616772 4.5914731 0
4.8616772 4.5714731 0
4.8616772 4.5514731 0
4.8616772 4.5314732 0
4.8616772 4.5114732 0
4.8616772 4.4914727 0
4.8616772 4.4714727 0
4.8616772 4.4514728 0
4.8616772 4.4314728 0
4.8616772 4.4114728 0
4.8616772 4.3914728 0
4.8616772 4.3714728 0
4.8616772 4.3514729 0
4.8616772 4.3314729 0
4.8616772 4.3114729 0
4.8616772 4.2914729 0
4.8616772 4.2714729 0
4.8616772 4.2514729 0
4.8616772 4.231473 0
4.8616772 4.211473 0
4.8616772 4.191473 0
4.8616772 4.171473 0
4.8616772 4.151473 0
4.8616772 4.1314731 0
4.8616772 4.1114731 0
4.8616772 4.0914731 0
4.8616772 4.0714731 0
4.8616772 4.0514731 0
4.8616772 4.0314732 0
4.8616772 4.0114732 0
4.8616772 3.991473 0
4.8616772 3.971473 0
4.8616772 3.951473 0
4.8616772 3.931473 0
4.8616772 3.911473 0
4.8616772 3.8914731 0
4.8616772 3.8714728 0
4.8616772 3.8514729 0
4.8616772 3.8314729 0
4.8616772 3.8114729 0
4.8616772 3.7914729 0
4.8616772 3.7714729 0
4.8616772 3.7514729 0
4.8616772 3.731473 0
4.8616772 3.711473 0
4.8616772 3.691473 0
4.8616772 3.671473 0
4.8616772 3.651473 0
4.8616772 3.6314731 0
4.8616772 3.6114728 0
4.8616772 3.5914729 0
4.8616772 3.5714729 0
4.8616772 3.5514729 0.039564811
4.8616772 3.5314729 0.12858564
4.8616772 3.5114729 0.20771526
4.8616772 3.491473 0.18793285
4.8616772 3.471473 0.14836803
4.8616772 3.451473 0.16073205
4.8616772 3.431473 0.21760646
4.8616772 3.411473 0.23986167
4.8616772 3.3914731 0.23986167
4.8616772 3.3714728 0.21018806
4.8616772 3.3514729 0.16815045
4.8616772 3.3314729 0.16815045
4.8616772 3.3114729 0.19040565
4.8616772 3.2914729 0.21018806
4.8616772 3.2714729 0.22007926
4.8616772 3.2514729 0.21760646
4.8616772 3.231473 0.21018806
4.8616772 3.211473 0.22007926
4.8616772 3.191473 0.22007926
4.8616772 3.171473 0.20524246
4.8616772 3.151473 0.19287845
4.8616772 3.1314731 0.18546005
4.8616772 3.1114728 0.16567765
4.8616772 3.0914729 0.16073205
4.8616772 3.0714729 0.14589524
4.8616772 3.0514729 0.13847683
4.8616772 3.0314729 0.11374883
4.8616772 3.0114729 0.11374883
4.8616772 2.991473 0.12858564
4.8616772 2.971473 0.16073205
4.8616772 2.951473 0.16073205
4.8616772 2.931473 0.14094964
4.8616772 2.911473 0.13353123
4.8616772 2.8914731 0.14342244
4.8616772 2.8714728 0.14342244
4.8616772 2.8514729 0.11374883
4.8616772 2.8314729 0.10138483
4.8616772 2.8114729 0.12364003
4.8616772 2.7914729 0.14836803
4.8616772 2.7714729 0.16073205
4.8616772 2.7514729 0.15578644
4.8616772 2.731473 0.13847683
4.8616772 2.711473 0.11127603
4.8616772 2.691473 0.079129621
4.8616772 2.671473 0.066765614
4.8616772 2.651473 0.07171122
4.8616772 2.6314731 0.07171122
4.8616772 2.6114728 0.061820015
4.8616772 2.5914729 0.054401614
4.8616772 2.5714729 0.066765614
4.8616772 2.5514729 0.076656818
4.8616772 2.5314729 0.084075227
4.8616772 2.5114729 0.084075227
4.8616772 2.491473 0.084075227
4.8616772 2.471473 0.074184015
4.8616772 2.451473 0.069238417
4.8616772 2.431473 0.056874417
4.8616772 2.411473 0.034619208
4.8616772 2.3914731 0.007418402
4.8616772 2.3714728 0
4.8616772 2.3514729 0.0049456013
4.8616772 2.3314729 0.014836804
4.8616772 2.3114729 0.029673608
4.8616772 2.2914729 0.042037614
4.8616772 2.2714729 0.059347216
4.8616772 2.2514729 0.059347216
4.8616772 2.231473 0.066765614
4.8616772 2.211473 0.066765614
4.8616772 2.191473 0.074184015
4.8616772 2.171473 0.074184015
4.8616772 2.151473 0.069238417
4.8616772 2.1314731 0.049456015
4.8616772 2.1114728 0.024728008
4.8616772 2.0914729 0.0049456013
4.8616772 2.0714729 0
4.8616772 2.0514729 0
4.8616772 2.0314729 0
4.8616772 2.0114729 0
4.8616772 1.991473 0
4.8616772 1.971473 0
4.8616772 1.951473 0
4.8616772 1.9314729 0
4.8616772 1.9114729 0
4.8616772 1.8914729 0
4.8616772 1.871473 0
4.8616772 1.851473 0
4.8616772 1.831473 0
4.8616772 1.8114729 0
4.8616772 1.7914729 0
4.8616772 1.7714729 0
4.8616772 1.7514729 0
4.8616772 1.731473 0
4.8616772 1.711473 0
4.8616772 1.691473 0
4.8616772 1.6714729 0
4.8616772 1.6514729 0
4.8616772 1.6314729 0
4.8616772 1.611473 0
4.8616772 1.591473 0
4.8616772 1.571473 0
4.8616772 1.5514729 0
4.8616772 1.5314729 0
4.8616772 1.5114729 0
4.8616772 1.491473 0
4.8616772 1.471473 0
4.8616772 1.451473 0
4.8616772 1.4314729 0
4.8616772 1.4114729 0
4.8616772 1.3914729 0
4.8616772 1.371473 0
4.8616772 1.351473 0
4.8616772 1.331473 0
4.8616772 1.3114729 0
4.8616772 1.2914729 0
4.8616772 1.2714729 0
4.8616772 1.2514729 0
4.8616772 1.231473 0
4.8616772 1.211473 0
4.8616772 1.191473 0
4.8616772 1.1714729 0
4.8616772 1.1514729 0
4.8616772 1.1314729 0
4.8616772 1.111473 0
4.8616772 1.091473 0
4.8616772 1.071473 0
4.8616772 1.0514729 0
4.8616772 1.0314729 0
4.8616772 1.0114729 0
4.8616772 0.99147296 0
4.8616772 0.97147298 0
4.8616772 0.95147294 0
4.8616772 0.93147296 0
4.8616772 0.91147298 0
4.8616772 0.89147294 0
4.8616772 0.87147295 0
4.8616772 0.85147297 0
4.8616772 0.83147293 0
4.8616772 0.81147295 0
4.8616772 0.79147297 0
4.8616772 0.77147293 0
4.8616772 0.75147295 0
4.8616772 0.73147297 0
4.8616772 0.71147293 0
4.8616772 0.69147295 0
4.8616772 0.67147297 0
4.8616772 0.65147293 0
4.8616772 0.63147295 0
4.8616772 0.61147296 0
4.8616772 0.59147292 0
4.8616772 0.57147294 0
4.8616772 0.55147296 0
4.8616772 0.53147292 0
4.8616772 0.51147294 0
4.8616772 0.49147296 0
4.8616772 0.47147295 0
4.8616772 0.45147294 0
4.8616772 0.43147296 0
4.8616772 0.41147295 0
4.8616772 0.39147294 0
4.8616772 0.37147295 0
4.8616772 0.35147294 0
4.8616772 0.33147296 0
4.8616772 0.31147295 0
4.8616772 0.29147294 0
4.8616772 0.27147296 0
4.8616772 0.25147295 0
4.8616772 0.23147295 0
4.8616772 0.21147294 0
4.8616772 0.19147295 0
4.8616772 0.17147295 0
4.8616772 0.15147296 0
4.8616772 0.13147295 0
4.8616772 0.11147295 0
4.8616772 0.091472954 0
4.8616772 0.07147295 0
4.8616772 0.051472951 0
4.8616772 0.031472951 0
4.8616772 0.01147295 0
4.8616772 -0.0085270498 0
4.8616772 -0.028527049 0
4.8616772 -0.048527051 0
4.8616772 -0.06852705 0
4.8616772 -0.088527054 0
4.8616772 -0.10852705 0
4.8616772 -0.12852705 0
4.8616772 -0.14852706 0
4.8616772 -0.16852705 0
4.8616772 -0.18852705 0
4.8616772 -0.20852704 0
4.8616772 -0.22852705 0
4.8616772 -0.24852705 0
4.8616772 -0.26852706 0
4.8616772 -0.28852704 0
4.8616772 -0.30852705 0
4.8616772 -0.32852706 0
4.8616772 -0.34852704 0
4.8616772 -0.36852705 0
4.8616772 -0.38852704 0
4.8616772 -0.40852705 0
4.8616772 -0.42852706 0
4.8616772 -0.44852704 0
4.8616772 -0.46852705 0
4.8616772 -0.48852706 0
4.8616772 -0.50852704 0
4.8616772 -0.52852702 0
4.8616772 -0.54852706 0
4.8616772 -0.56852704 0
4.8616772 -0.58852702 0
4.8616772 -0.60852706 0
4.8616772 -0.62852705 0
4.8616772 -0.64852703 0
4.8416772 5.151473 0
4.8416772 5.1314731 0
4.8416772 5.1114731 0
4.8416772 5.0914731 0
4.8416772 5.0714731 0
4.8416772 5.0514731 0
4.8416772 5.0314732 0
4.8416772 5.0114732 0
4.8416772 4.9914727 0
4.8416772 4.9714727 0
4.8416772 4.9514728 0
4.8416772 4.9314728 0
4.8416772 4.9114728 0
4.8416772 4.8914728 0
4.8416772 4.8714728 0
4.8416772 4.8514729 0
4.8416772 4.8314729 0
4.8416772 4.8114729 0
4.8416772 4.7914729 0
4.8416772 4.7714729 0
4.8416772 4.7514729 0
4.8416772 4.731473 0
4.8416772 4.711473 0
4.8416772 4.691473 0
4.8416772 4.671473 0
4.8416772 4.651473 0
4.8416772 4.6314731 0
4.8416772 4.6114731 0
4.8416772 4.5914731 0
4.8416772 4.5714731 0
4.8416772 4.5514731 0
4.8416772 4.5314732 0
4.8416772 4.5114732 0
4.8416772 4.4914727 0
4.8416772 4.4714727 0
4.8416772 4.4514728 0
4.8416772 4.4314728 0
4.8416772 4.4114728 0
4.8416772 4.3914728 0
4.8416772 4.3714728 0
4.8416772 4.3514729 0
4.8416772 4.3314729 0
4.8416772 4.3114729 0
4.8416772 4.2914729 0
4.8416772 4.2714729 0
4.8416772 4.2514729 0
4.8416772 4.231473 0
4.8416772 4.211473 0
4.8416772 4.191473 0
4.8416772 4.171473 0
4.8416772 4.151473 0
4.8416772 4.1314731 0
4.8416772 4.1114731 0
4.8416772 4.0914731 0
4.8416772 4.0714731 0
4.8416772 4.0514731 0
4.8416772 4.0314732 0
4.8416772 4.0114732 0
4.8416772 3.991473 0
4.8416772 3.971473 0
4.8416772 3.951473 0
4.8416772 3.931473 0
4.8416772 3.911473 0
4.8416772 3.8914731 0
4.8416772 3.8714728 0
4.8416772 3.8514729 0
4.8416772 3.8314729 0
4.8416772 3.8114729 0
4.8416772 3.7914729 0
4.8416772 3.7714729 0
4.8416772 3.7514729 0
4.8416772 3.731473 0
4.8416772 3.711473 0
4.8416772 3.691473 0
4.8416772 3.671473 0
4.8416772 3.651473 0
4.8416772 3.6314731 0
4.8416772 3.6114728 0
4.8416772 3.5914729 0
4.8416772 3.5714729 0
4.8416772 3.5514729 0.049456015
4.8416772 3.5314729 0.11869443
4.8416772 3.5114729 0.18793285
4.8416772 3.491473 0.16815045
4.8416772 3.471473 0.16815045
4.8416772 3.451473 0.18793285
4.8416772 3.431473 0.23738886
4.8416772 3.411473 0.23986167
4.8416772 3.3914731 0.22007926
4.8416772 3.3714728 0.19040565
4.8416772 3.3514729 0.16815045
4.8416772 3.3314729 0.18793285
4.8416772 3.3114729 0.21760646
4.8416772 3.2914729 0.23986167
4.8416772 3.2714729 0.23986167
4.8416772 3.2514729 0.21018806
4.8416772 3.231473 0.19782406
4.8416772 3.211473 0.19040565
4.8416772 3.191473 0.18051445
4.8416772 3.171473 0.17062324
4.8416772 3.151473 0.18051445
4.8416772 3.1314731 0.18051445
4.8416772 3.1114728 0.16320485
4.8416772 3.0914729 0.15825924
4.8416772 3.0714729 0.15825924
4.8416772 3.0514729 0.15825924
4.8416772 3.0314729 0.14589524
4.8416772 3.0114729 0.14094964
4.8416772 2.991473 0.14589524
4.8416772 2.971473 0.14836803
4.8416772 2.951473 0.14094964
4.8416772 2.931473 0.13353123
4.8416772 2.911473 0.14342244
4.8416772 2.8914731 0.13600403
4.8416772 2.8714728 0.12858564
4.8416772 2.8514729 0.10138483
4.8416772 2.8314729 0.10880323
4.8416772 2.8114729 0.13600403
4.8416772 2.7914729 0.16320485
4.8416772 2.7714729 0.16073205
4.8416772 2.7514729 0.15331364
4.8416772 2.731473 0.13105844
4.8416772 2.711473 0.10385763
4.8416772 2.691473 0.069238417
4.8416772 2.671473 0.061820015
4.8416772 2.651473 0.066765614
4.8416772 2.6314731 0.074184015
4.8416772 2.6114728 0.07171122
4.8416772 2.5914729 0.069238417
4.8416772 2.5714729 0.066765614
4.8416772 2.5514729 0.066765614
4.8416772 2.5314729 0.069238417
4.8416772 2.5114729 0.074184015
4.8416772 2.491473 0.07171122
4.8416772 2.471473 0.059347216
4.8416772 2.451473 0.056874417
4.8416772 2.431473 0.044510413
4.8416772 2.411473 0.024728008
4.8416772 2.3914731 0
4.8416772 2.3714728 0
4.8416772 2.3514729 0
4.8416772 2.3314729 0
4.8416772 2.3114729 0.012364004
4.8416772 2.2914729 0.029673608
4.8416772 2.2714729 0.051928815
4.8416772 2.2514729 0.064292818
4.8416772 2.231473 0.074184015
4.8416772 2.211473 0.069238417
4.8416772 2.191473 0.07171122
4.8416772 2.171473 0.074184015
4.8416772 2.151473 0.081602424
4.8416772 2.1314731 0.064292818
4.8416772 2.1114728 0.042037614
4.8416772 2.0914729 0.017309604
4.8416772 2.0714729 0.007418402
4.8416772 2.0514729 0
4.8416772 2.0314729 0
4.8416772 2.0114729 0
4.8416772 1.991473 0
4.8416772 1.971473 0
4.8416772 1.951473 0
4.8416772 1.9314729 0
4.8416772 1.9114729 0
4.8416772 1.8914729 0
4.8416772 1.871473 0
4.8416772 1.851473 0
4.8416772 1.831473 0
4.8416772 1.8114729 0
4.8416772 1.7914729 0
4.8416772 1.7714729 0
4.8416772 1.7514729 0
4.8416772 1.731473 0
4.8416772 1.711473 0
4.8416772 1.691473 0
4.8416772 1.6714729 0
4.8416772 1.6514729 0
4.8416772 1.6314729 0
4.8416772 1.611473 0
4.8416772 1.591473 0
4.8416772 1.571473 0
4.8416772 1.5514729 0
4.8416772 1.5314729 0
4.8416772 1.5114729 0
4.8416772 1.491473 0
4.8416772 1.471473 0
4.8416772 1.451473 0
4.8416772 1.4314729 0
4.8416772 1.4114729 0
4.8416772 1.3914729 0
4.8416772 1.371473 0
4.8416772 1.351473 0
4.8416772 1.331473 0
4.8416772 1.3114729 0
4.8416772 1.2914729 0
4.8416772 1.2714729 0
4.8416772 1.2514729 0
4.8416772 1.231473 0
4.8416772 1.211473 0
4.8416772 1.191473 0
4.8416772 1.1714729 0
4.8416772 1.1514729 0
4.8416772 1.1314729 0
4.8416772 1.111473 0
4.8416772 1.091473 0
4.8416772 1.071473 0
4.8416772 1.0514729 0
4.8416772 1.0314729 0
4.8416772 1.0114729 0
4.8416772 0.99147296 0
4.8416772 0.97147298 0
4.8416772 0.95147294 0
4.8416772 0.93147296 0
4.8416772 0.91147298 0
4.8416772 0.89147294 0
4.8416772 0.87147295 0
4.8416772 0.85147297 0
4.8416772 0.83147293 0
4.8416772 0.81147295 0
4.8416772 0.79147297 0
4.8416772 0.77147293 0
4.8416772 0.75147295 0
4.8416772 0.73147297 0
4.8416772 0.71147293 0
4.8416772 0.69147295 0
4.8416772 0.67147297 0
4.8416772 0.65147293 0
4.8416772 0.63147295 0
4.8416772 0.61147296 0
4.8416772 0.59147292 0
4.8416772 0.57147294 0
4.8416772 0.55147296 0
4.8416772 0.53147292 0
4.8416772 0.51147294 0
4.8416772 0.49147296 0
4.8416772 0.47147295 0
4.8416772 0.45147294 0
4.8416772 0.43147296 0
4.8416772 0.41147295 0
4.8416772 0.39147294 0
4.8416772 0.37147295 0
4.8416772 0.35147294 0
4.8416772 0.33147296 0
4.8416772 0.31147295 0
4.8416772 0.29147294 0
4.8416772 0.27147296 0
4.8416772 0.25147295 0
4.8416772 0.23147295 0
4.8416772 0.21147294 0
4.8416772 0.19147295 0
4.8416772 0.17147295 0
4.8416772 0.15147296 0
4.8416772 0.13147295 0
4.8416772 0.11147295 0
4.8416772 0.091472954 0
4.8416772 0.07147295 0
