# .PCD v0.7 - Point Cloud Data file format
VERSION 0.7
FIELDS x y z
SIZE 4 4 4
TYPE F F F
COUNT 1 1 1
WIDTH 1485
HEIGHT 1
VIEWPOINT 0 0 0 1 0 0 0
POINTS 1485
DATA ascii
5.5497947 1.786172 -0.75999999
5.5497947 1.7661721 -0.75999999
5.5497947 1.7461721 -0.75999999
5.5497947 1.7261721 -0.75999999
5.5497947 1.7061721 -0.75999999
5.5497947 1.686172 -0.75999999
5.5497947 1.666172 -0.75999999
5.5497947 1.646172 -0.75999999
5.5497947 1.6261721 -0.75999999
5.5497947 1.6061721 -0.75999999
5.5497947 1.5861721 -0.75999999
5.5497947 1.5661721 -0.75999999
5.5497947 1.546172 -0.75999999
5.5497947 1.526172 -0.75999999
5.5497947 1.5061721 -0.75999999
5.5497947 1.4861721 -0.75999999
5.5497947 1.4661721 -0.75999999
5.5497947 1.4461721 -0.75999999
5.5497947 1.426172 -0.75999999
5.5497947 1.406172 -0.75999999
5.5497947 1.3861721 -0.75999999
5.5497947 1.3661721 -0.75999999
5.5497947 1.3461721 -0.75999999
5.5497947 1.3261721 -0.75999999
5.5497947 1.306172 -0.75999999
5.5497947 1.286172 -0.39395177
5.5497947 1.2661721 -0.75999999
5.5497947 1.2461721 -0.75999999
5.5497947 1.2261721 -0.75999999
5.5497947 1.2061721 -0.75999999
5.5497947 1.186172 -0.75999999
5.5497947 1.166172 -0.75999999
5.5497947 1.146172 -0.75999999
5.5497947 1.1261721 -0.75999999
5.5497947 1.1061721 -0.75999999
5.5497947 1.0861721 -0.75999999
5.5497947 1.0661721 -0.75999999
5.5497947 1.046172 -0.75999999
5.5497947 1.026172 -0.75999999
5.5497947 1.0061721 -0.75999999
5.5497947 0.98617208 -0.75999999
5.5497947 0.96617204 -0.54600257
5.5497947 0.94617206 -0.75999999
5.5497947 0.92617208 -0.75999999
5.5497947 0.90617204 -0.75999999
5.5497947 0.88617206 -0.75999999
5.5497947 0.86617208 -0.75999999
5.5497947 0.84617209 -0.75999999
5.5497947 0.82617205 -0.75999999
5.5497947 0.80617207 -0.40239906
5.5497947 0.78617209 -0.75999999
5.5497947 0.76617205 -0.28976882
5.5497947 0.74617207 -0.31511062
5.5497947 0.72617209 -0.35171545
5.5497947 0.70617205 -0.37987298
5.5497947 0.68617207 -0.44181961
5.5497947 0.66617209 -0.47560868
5.5497947 0.64617205 -0.51502925
5.5497947 0.62617207 -0.56289709
5.5497947 0.60617208 -0.75999999
5.5497947 0.58617204 -0.75999999
5.5497947 0.56617206 -0.75999999
5.5497947 0.54617208 -0.75999999
5.5497947 0.52617204 -0.75999999
5.5497947 0.50617206 -0.75999999
5.5497947 0.48617208 -0.75999999
5.5497947 0.46617207 -0.75999999
5.5497947 0.44617206 -0.75999999
5.5497947 0.42617208 -0.75999999
5.5497947 0.40617207 -0.75999999
5.5497947 0.38617206 -0.75999999
5.5497947 0.36617208 -0.75999999
5.5497947 0.34617206 -0.75999999
5.5497947 0.32617205 -0.75999999
5.5497947 0.30617207 -0.75999999
5.5497947 0.28617206 -0.75999999
5.5497947 0.26617205 -0.75999999
5.5497947 0.24617207 -0.75999999
5.5497947 0.22617206 -0.75999999
5.5497947 0.20617206 -0.75999999
5.5497947 0.18617207 -0.75999999
5.5497947 0.16617207 -0.75999999
5.5497947 0.14617206 -0.75999999
5.5497947 0.12617207 -0.75999999
5.5497947 0.10617206 -0.75999999
5.5497947 0.086172067 -0.75999999
5.5497947 0.066172063 -0.75999999
5.5497947 0.046172068 -0.75999999
5.5497947 0.026172066 -0.75999999
5.5497947 0.0061720656 -0.75999999
5.5497947 -0.013827934 -0.75999999
5.5497947 -0.033827934 -0.75999999
5.5497947 -0.053827934 -0.75999999
5.5497947 -0.073827937 -0.75999999
5.5497947 -0.093827933 -0.75999999
5.5497947 -0.11382794 -0.75999999
5.5497947 -0.13382794 -0.75999999
5.5497947 -0.15382794 -0.75999999
5.5497947 -0.17382793 -0.75999999
5.5497947 -0.19382793 -0.75999999
5.5497947 -0.21382794 -0.75999999
5.5497947 -0.23382793 -0.75999999
5.5497947 -0.25382793 -0.75999999
5.5497947 -0.27382794 -0.75999999
5.5497947 -0.29382792 -0.75999999
5.5497947 -0.31382793 -0.75999999
5.5497947 -0.33382794 -0.75999999
5.5497947 -0.35382792 -0.75999999
5.5497947 -0.37382793 -0.75999999
5.5497947 -0.39382794 -0.75999999
5.5497947 -0.41382793 -0.75999999
5.5497947 -0.43382794 -0.75999999
5.5497947 -0.45382795 -0.75999999
5.5497947 -0.47382793 -0.75999999
5.5497947 -0.49382794 -0.75999999
5.5497947 -0.51382792 -0.75999999
5.5497947 -0.53382796 -0.75999999
5.5497947 -0.55382794 -0.75999999
5.5497947 -0.57382792 -0.75999999
5.5497947 -0.59382796 -0.75999999
5.5497947 -0.61382794 -0.75999999
5.5497947 -0.63382792 -0.75999999
5.5497947 -0.65382791 -0.75999999
5.5497947 -0.67382795 -0.75999999
5.5297947 4.9261723 -0.75999999
5.5297947 4.9061723 -0.75999999
5.5297947 4.8861723 -0.75999999
5.5297947 4.8661718 -0.75999999
5.5297947 4.8461719 -0.75999999
5.5297947 4.8261719 -0.75999999
5.5297947 4.8061719 -0.75999999
5.5297947 4.7861719 -0.75999999
5.5297947 4.7661719 -0.75999999
5.5297947 4.746172 -0.75999999
5.5297947 4.726172 -0.75999999
5.5297947 4.706172 -0.75999999
5.5297947 4.686172 -0.75999999
5.5297947 4.666172 -0.75999999
5.5297947 4.646172 -0.75999999
5.5297947 4.6261721 -0.75999999
5.5297947 4.6061721 -0.75999999
5.5297947 4.5861721 -0.75999999
5.5297947 4.5661721 -0.75999999
5.5297947 4.5461721 -0.75999999
5.5297947 4.5261722 -0.75999999
5.5297947 4.5061722 -0.75999999
5.5297947 4.4861722 -0.75999999
5.5297947 4.4661722 -0.75999999
5.5297947 4.4461722 -0.75999999
5.5297947 4.4261723 -0.75999999
5.5297947 4.4061723 -0.75999999
5.5297947 4.3861723 -0.75999999
5.5297947 4.3661718 -0.75999999
5.5297947 4.3461719 -0.75999999
5.5297947 4.3261719 -0.75999999
5.5297947 4.3061719 -0.75999999
5.5297947 4.2861719 -0.75999999
5.5297947 4.2661719 -0.75999999
5.5297947 4.246172 -0.75999999
5.5297947 4.226172 -0.75999999
5.5297947 4.206172 -0.75999999
5.5297947 4.186172 -0.75999999
5.5297947 4.166172 -0.75999999
5.5297947 4.146172 -0.75999999
5.5297947 4.1261721 -0.75999999
5.5297947 4.1061721 -0.75999999
5.5297947 4.0861721 -0.75999999
5.5297947 4.0661721 -0.75999999
5.5297947 4.0461721 -0.75999999
5.5297947 4.0261722 -0.75999999
5.5297947 4.0061722 -0.75999999
5.5297947 3.986172 -0.75999999
5.5297947 3.966172 -0.75999999
5.5297947 3.946172 -0.75999999
5.5297947 3.926172 -0.75999999
5.5297947 3.906172 -0.75999999
5.5297947 3.8861721 -0.75999999
5.5297947 3.8661721 -0.75999999
5.5297947 3.8461721 -0.75999999
5.5297947 3.8261721 -0.75999999
5.5297947 3.8061721 -0.75999999
5.5297947 3.7861722 -0.75999999
5.5297947 3.7661722 -0.75999999
5.5297947 3.746172 -0.75999999
5.5297947 3.726172 -0.75999999
5.5297947 3.706172 -0.75999999
5.5297947 3.686172 -0.75999999
5.5297947 3.666172 -0.75999999
5.5297947 3.646172 -0.75999999
5.5297947 3.6261721 -0.75999999
5.5297947 3.6061721 -0.75999999
5.5297947 3.5861721 -0.75999999
5.5297947 3.5661721 -0.75999999
5.5297947 3.5461721 -0.75999999
5.5297947 3.5261722 -0.75999999
5.5297947 3.5061722 -0.75999999
5.5297947 3.486172 -0.75999999
5.5297947 3.466172 -0.75999999
5.5297947 3.446172 -0.75999999
5.5297947 3.426172 -0.75999999
5.5297947 3.406172 -0.75999999
5.5297947 3.3861721 -0.75999999
5.5297947 3.3661721 -0.75999999
5.5297947 3.3461721 -0.75999999
5.5297947 3.3261721 -0.75999999
5.5297947 3.3061721 -0.75999999
5.5297947 3.2861722 -0.75999999
5.5297947 3.2661722 -0.75999999
5.5297947 3.246172 -0.75999999
5.5297947 3.226172 -0.75999999
5.5297947 3.206172 -0.75999999
5.5297947 3.186172 -0.75999999
5.5297947 3.166172 -0.75999999
5.5297947 3.146172 -0.75999999
5.5297947 3.1261721 -0.75999999
5.5297947 3.1061721 -0.75999999
5.5297947 3.0861721 -0.75999999
5.5297947 3.0661721 -0.75999999
5.5297947 3.0461721 -0.75999999
5.5297947 3.0261722 -0.75999999
5.5297947 3.0061722 -0.75999999
5.5297947 2.986172 -0.75999999
5.5297947 2.966172 -0.75999999
5.5297947 2.946172 -0.75999999
5.5297947 2.926172 -0.75999999
5.5297947 2.906172 -0.75999999
5.5297947 2.8861721 -0.75999999
5.5297947 2.8661721 -0.75999999
5.5297947 2.8461721 -0.75999999
5.5297947 2.8261721 -0.75999999
5.5297947 2.8061721 -0.75999999
5.5297947 2.7861722 -0.75999999
5.5297947 2.7661722 -0.75999999
5.5297947 2.746172 -0.75999999
5.5297947 2.726172 -0.75999999
5.5297947 2.706172 -0.75999999
5.5297947 2.686172 -0.75999999
5.5297947 2.666172 -0.75999999
5.5297947 2.646172 -0.75999999
5.5297947 2.6261721 -0.75999999
5.5297947 2.6061721 -0.75999999
5.5297947 2.5861721 -0.75999999
5.5297947 2.5661721 -0.75999999
5.5297947 2.5461721 -0.75999999
5.5297947 2.5261722 -0.75999999
5.5297947 2.5061722 -0.75999999
5.5297947 2.486172 -0.75999999
5.5297947 2.466172 -0.75999999
5.5297947 2.446172 -0.75999999
5.5297947 2.426172 -0.75999999
5.5297947 2.406172 -0.75999999
5.5297947 2.3861721 -0.75999999
5.5297947 2.3661721 -0.75999999
5.5297947 2.3461721 -0.75999999
5.5297947 2.3261721 -0.75999999
5.5297947 2.3061721 -0.75999999
5.5297947 2.2861722 -0.75999999
5.5297947 2.2661722 -0.75999999
5.5297947 2.246172 -0.75999999
5.5297947 2.226172 -0.75999999
5.5297947 2.206172 -0.75999999
5.5297947 2.186172 -0.75999999
5.5297947 2.166172 -0.75999999
5.5297947 2.146172 -0.75999999
5.5297947 2.1261721 -0.75999999
5.5297947 2.1061721 -0.75999999
5.5297947 2.0861721 -0.75999999
5.5297947 2.0661721 -0.75999999
5.5297947 2.0461721 -0.75999999
5.5297947 2.0261722 -0.75999999
5.5297947 2.0061722 -0.75999999
5.5297947 1.9861721 -0.75999999
5.5297947 1.9661721 -0.75999999
5.5297947 1.9461721 -0.75999999
5.5297947 1.926172 -0.75999999
5.5297947 1.906172 -0.75999999
5.5297947 1.8861721 -0.75999999
5.5297947 1.8661721 -0.75999999
5.5297947 1.8461721 -0.75999999
5.5297947 1.8261721 -0.75999999
5.5297947 1.806172 -0.75999999
5.5297947 1.786172 -0.75999999
5.5297947 1.7661721 -0.75999999
5.5297947 1.7461721 -0.75999999
5.5297947 1.7261721 -0.75999999
5.5297947 1.7061721 -0.75999999
5.5297947 1.686172 -0.75999999
5.5297947 1.666172 -0.75999999
5.5297947 1.646172 -0.75999999
5.5297947 1.6261721 -0.75999999
5.5297947 1.6061721 -0.75999999
5.5297947 1.5861721 -0.75999999
5.5297947 1.5661721 -0.75999999
5.5297947 1.546172 -0.75999999
5.5297947 1.526172 -0.75999999
5.5297947 1.5061721 -0.75999999
5.5297947 1.4861721 -0.75999999
5.5297947 1.4661721 -0.75999999
5.5297947 1.4461721 -0.75999999
5.5297947 1.426172 -0.75999999
5.5297947 1.406172 -0.75999999
5.5297947 1.3861721 -0.75999999
5.5297947 1.3661721 -0.75999999
5.5297947 1.3461721 -0.75999999
5.5297947 1.3261721 -0.75999999
5.5297947 1.306172 -0.75999999
5.5297947 1.286172 -0.75999999
5.5297947 1.2661721 -0.75999999
5.5297947 1.2461721 -0.59105468
5.5297947 1.2261721 -0.75999999
5.5297947 1.2061721 -0.75999999
5.5297947 1.186172 -0.75999999
5.5297947 1.166172 -0.75999999
5.5297947 1.146172 -0.75999999
5.5297947 1.1261721 -0.75999999
5.5297947 1.1061721 -0.75999999
5.5297947 1.0861721 -0.75999999
5.5297947 1.0661721 -0.75999999
5.5297947 1.046172 -0.55726558
5.5297947 1.026172 -0.75999999
5.5297947 1.0061721 -0.75999999
5.5297947 0.98617208 -0.75999999
5.5297947 0.96617204 -0.54881835
5.5297947 0.94617206 -0.58823889
5.5297947 0.92617208 -0.75999999
5.5297947 0.90617204 -0.75999999
5.5297947 0.88617206 -0.75999999
5.5297947 0.86617208 -0.75999999
5.5297947 0.84617209 -0.75999999
5.5297947 0.82617205 -0.75999999
5.5297947 0.80617207 -0.39676753
5.5297947 0.78617209 -0.34326816
5.5297947 0.76617205 -0.28695306
5.5297947 0.74617207 -0.31511062
5.5297947 0.72617209 -0.37142572
5.5297947 0.70617205 -0.41084632
5.5297947 0.68617207 -0.4502669
5.5297947 0.66617209 -0.50658202
5.5297947 0.64617205 -0.54318678
5.5297947 0.62617207 -0.75999999
5.5297947 0.60617208 -0.75999999
5.5297947 0.58617204 -0.75999999
5.5297947 0.56617206 -0.75999999
5.5297947 0.54617208 -0.75999999
5.5297947 0.52617204 -0.75999999
5.5297947 0.50617206 -0.75999999
5.5297947 0.48617208 -0.75999999
5.5297947 0.46617207 -0.75999999
5.5297947 0.44617206 -0.75999999
5.5297947 0.42617208 -0.75999999
5.5297947 0.40617207 -0.75999999
5.5297947 0.38617206 -0.75999999
5.5297947 0.36617208 -0.75999999
5.5297947 0.34617206 -0.75999999
5.5297947 0.32617205 -0.75999999
5.5297947 0.30617207 -0.75999999
5.5297947 0.28617206 -0.75999999
5.5297947 0.26617205 -0.75999999
5.5297947 0.24617207 -0.75999999
5.5297947 0.22617206 -0.75999999
5.5297947 0.20617206 -0.75999999
5.5297947 0.18617207 -0.75999999
5.5297947 0.16617207 -0.75999999
5.5297947 0.14617206 -0.75999999
5.5297947 0.12617207 -0.75999999
5.5297947 0.10617206 -0.75999999
5.5297947 0.086172067 -0.75999999
5.5297947 0.066172063 -0.75999999
5.5297947 0.046172068 -0.75999999
5.5297947 0.026172066 -0.75999999
5.5297947 0.0061720656 -0.75999999
5.5297947 -0.013827934 -0.75999999
5.5297947 -0.033827934 -0.75999999
5.5297947 -0.053827934 -0.75999999
5.5297947 -0.073827937 -0.75999999
5.5297947 -0.093827933 -0.75999999
5.5297947 -0.11382794 -0.75999999
5.5297947 -0.13382794 -0.75999999
5.5297947 -0.15382794 -0.75999999
5.5297947 -0.17382793 -0.75999999
5.5297947 -0.19382793 -0.75999999
5.5297947 -0.21382794 -0.75999999
5.5297947 -0.23382793 -0.75999999
5.5297947 -0.25382793 -0.75999999
5.5297947 -0.27382794 -0.75999999
5.5297947 -0.29382792 -0.75999999
5.5297947 -0.31382793 -0.75999999
5.5297947 -0.33382794 -0.75999999
5.5297947 -0.35382792 -0.75999999
5.5297947 -0.37382793 -0.75999999
5.5297947 -0.39382794 -0.75999999
5.5297947 -0.41382793 -0.75999999
5.5297947 -0.43382794 -0.75999999
5.5297947 -0.45382795 -0.75999999
5.5297947 -0.47382793 -0.75999999
5.5297947 -0.49382794 -0.75999999
5.5297947 -0.51382792 -0.75999999
5.5297947 -0.53382796 -0.75999999
5.5297947 -0.55382794 -0.75999999
5.5297947 -0.57382792 -0.75999999
5.5297947 -0.59382796 -0.75999999
5.5297947 -0.61382794 -0.75999999
5.5297947 -0.63382792 -0.75999999
5.5297947 -0.65382791 -0.75999999
5.5297947 -0.67382795 -0.75999999
5.5097947 4.9261723 -0.75999999
5.5097947 4.9061723 -0.75999999
5.5097947 4.8861723 -0.75999999
5.5097947 4.8661718 -0.75999999
5.5097947 4.8461719 -0.75999999
5.5097947 4.8261719 -0.75999999
5.5097947 4.8061719 -0.75999999
5.5097947 4.7861719 -0.75999999
5.5097947 4.7661719 -0.75999999
5.5097947 4.746172 -0.75999999
5.5097947 4.726172 -0.75999999
5.5097947 4.706172 -0.75999999
5.5097947 4.686172 -0.75999999
5.5097947 4.666172 -0.75999999
5.5097947 4.646172 -0.75999999
5.5097947 4.6261721 -0.75999999
5.5097947 4.6061721 -0.75999999
5.5097947 4.5861721 -0.75999999
5.5097947 4.5661721 -0.75999999
5.5097947 4.5461721 -0.75999999
5.5097947 4.5261722 -0.75999999
5.5097947 4.5061722 -0.75999999
5.5097947 4.4861722 -0.75999999
5.5097947 4.4661722 -0.75999999
5.5097947 4.4461722 -0.75999999
5.5097947 4.4261723 -0.75999999
5.5097947 4.4061723 -0.75999999
5.5097947 4.3861723 -0.75999999
5.5097947 4.3661718 -0.75999999
5.5097947 4.3461719 -0.75999999
5.5097947 4.3261719 -0.75999999
5.5097947 4.3061719 -0.75999999
5.5097947 4.2861719 -0.75999999
5.5097947 4.2661719 -0.75999999
5.5097947 4.246172 -0.75999999
5.5097947 4.226172 -0.75999999
5.5097947 4.206172 -0.75999999
5.5097947 4.186172 -0.75999999
5.5097947 4.166172 -0.75999999
5.5097947 4.146172 -0.75999999
5.5097947 4.1261721 -0.75999999
5.5097947 4.1061721 -0.75999999
5.5097947 4.0861721 -0.75999999
5.5097947 4.0661721 -0.75999999
5.5097947 4.0461721 -0.75999999
5.5097947 4.0261722 -0.75999999
5.5097947 4.0061722 -0.75999999
5.5097947 3.986172 -0.75999999
5.5097947 3.966172 -0.75999999
5.5097947 3.946172 -0.75999999
5.5097947 3.926172 -0.75999999
5.5097947 3.906172 -0.75999999
5.5097947 3.8861721 -0.75999999
5.5097947 3.8661721 -0.75999999
5.5097947 3.8461721 -0.75999999
5.5097947 3.8261721 -0.75999999
5.5097947 3.8061721 -0.75999999
5.5097947 3.7861722 -0.75999999
5.5097947 3.7661722 -0.75999999
5.5097947 3.746172 -0.75999999
5.5097947 3.726172 -0.75999999
5.5097947 3.706172 -0.75999999
5.5097947 3.686172 -0.75999999
5.5097947 3.666172 -0.75999999
5.5097947 3.646172 -0.75999999
5.5097947 3.6261721 -0.75999999
5.5097947 3.6061721 -0.75999999
5.5097947 3.5861721 -0.75999999
5.5097947 3.5661721 -0.75999999
5.5097947 3.5461721 -0.75999999
5.5097947 3.5261722 -0.75999999
5.5097947 3.5061722 -0.75999999
5.5097947 3.486172 -0.75999999
5.5097947 3.466172 -0.75999999
5.5097947 3.446172 -0.75999999
5.5097947 3.426172 -0.75999999
5.5097947 3.406172 -0.75999999
5.5097947 3.3861721 -0.75999999
5.5097947 3.3661721 -0.75999999
5.5097947 3.3461721 -0.75999999
5.5097947 3.3261721 -0.75999999
5.5097947 3.3061721 -0.75999999
5.5097947 3.2861722 -0.75999999
5.5097947 3.2661722 -0.75999999
5.5097947 3.246172 -0.75999999
5.5097947 3.226172 -0.75999999
5.5097947 3.206172 -0.75999999
5.5097947 3.186172 -0.75999999
5.5097947 3.166172 -0.75999999
5.5097947 3.146172 -0.75999999
5.5097947 3.1261721 -0.75999999
5.5097947 3.1061721 -0.75999999
5.5097947 3.0861721 -0.75999999
5.5097947 3.0661721 -0.75999999
5.5097947 3.0461721 -0.75999999
5.5097947 3.0261722 -0.75999999
5.5097947 3.0061722 -0.75999999
5.5097947 2.986172 -0.75999999
5.5097947 2.966172 -0.75999999
5.5097947 2.946172 -0.75999999
5.5097947 2.926172 -0.75999999
5.5097947 2.906172 -0.75999999
5.5097947 2.8861721 -0.75999999
5.5097947 2.8661721 -0.75999999
5.5097947 2.8461721 -0.75999999
5.5097947 2.8261721 -0.75999999
5.5097947 2.8061721 -0.75999999
5.5097947 2.7861722 -0.75999999
5.5097947 2.7661722 -0.75999999
5.5097947 2.746172 -0.75999999
5.5097947 2.726172 -0.75999999
5.5097947 2.706172 -0.75999999
5.5097947 2.686172 -0.75999999
5.5097947 2.666172 -0.75999999
5.5097947 2.646172 -0.75999999
5.5097947 2.6261721 -0.75999999
5.5097947 2.6061721 -0.75999999
5.5097947 2.5861721 -0.75999999
5.5097947 2.5661721 -0.75999999
5.5097947 2.5461721 -0.75999999
5.5097947 2.5261722 -0.75999999
5.5097947 2.5061722 -0.75999999
5.5097947 2.486172 -0.75999999
5.5097947 2.466172 -0.75999999
5.5097947 2.446172 -0.75999999
5.5097947 2.426172 -0.75999999
5.5097947 2.406172 -0.75999999
5.5097947 2.3861721 -0.75999999
5.5097947 2.3661721 -0.75999999
5.5097947 2.3461721 -0.75999999
5.5097947 2.3261721 -0.75999999
5.5097947 2.3061721 -0.75999999
5.5097947 2.2861722 -0.75999999
5.5097947 2.2661722 -0.75999999
5.5097947 2.246172 -0.75999999
5.5097947 2.226172 -0.75999999
5.5097947 2.206172 -0.75999999
5.5097947 2.186172 -0.75999999
5.5097947 2.166172 -0.75999999
5.5097947 2.146172 -0.75999999
5.5097947 2.1261721 -0.75999999
5.5097947 2.1061721 -0.75999999
5.5097947 2.0861721 -0.75999999
5.5097947 2.0661721 -0.75999999
5.5097947 2.0461721 -0.75999999
5.5097947 2.0261722 -0.75999999
5.5097947 2.0061722 -0.75999999
5.5097947 1.9861721 -0.75999999
5.5097947 1.9661721 -0.75999999
5.5097947 1.9461721 -0.75999999
5.5097947 1.926172 -0.75999999
5.5097947 1.906172 -0.75999999
5.5097947 1.8861721 -0.75999999
5.5097947 1.8661721 -0.75999999
5.5097947 1.8461721 -0.75999999
5.5097947 1.8261721 -0.75999999
5.5097947 1.806172 -0.75999999
5.5097947 1.786172 -0.75999999
5.5097947 1.7661721 -0.75999999
5.5097947 1.7461721 -0.75999999
5.5097947 1.7261721 -0.75999999
5.5097947 1.7061721 -0.75999999
5.5097947 1.686172 -0.75999999
5.5097947 1.666172 -0.75999999
5.5097947 1.646172 -0.75999999
5.5097947 1.6261721 -0.75999999
5.5097947 1.6061721 -0.75999999
5.5097947 1.5861721 -0.75999999
5.5097947 1.5661721 -0.75999999
5.5097947 1.546172 -0.75999999
5.5097947 1.526172 -0.75999999
5.5097947 1.5061721 -0.75999999
5.5097947 1.4861721 -0.75999999
5.5097947 1.4661721 -0.75999999
5.5097947 1.4461721 -0.75999999
5.5097947 1.426172 -0.75999999
5.5097947 1.406172 -0.75999999
5.5097947 1.3861721 -0.75999999
5.5097947 1.3661721 -0.75999999
5.5097947 1.3461721 -0.75999999
5.5097947 1.3261721 -0.3545312
5.5097947 1.306172 -0.3545312
5.5097947 1.286172 -0.75999999
5.5097947 1.2661721 -0.75999999
5.5097947 1.2461721 -0.75999999
5.5097947 1.2261721 -0.45308265
5.5097947 1.2061721 -0.75999999
5.5097947 1.186172 -0.75999999
5.5097947 1.166172 -0.75999999
5.5097947 1.146172 -0.28976882
5.5097947 1.1261721 -0.75999999
5.5097947 1.1061721 -0.75999999
5.5097947 1.0861721 -0.75999999
5.5097947 1.0661721 -0.75999999
5.5097947 1.046172 -0.75999999
5.5097947 1.026172 -0.75999999
5.5097947 1.0061721 -0.75999999
5.5097947 0.98617208 -0.75999999
5.5097947 0.96617204 -0.55444986
5.5097947 0.94617206 -0.75999999
5.5097947 0.92617208 -0.75999999
5.5097947 0.90617204 -0.75999999
5.5097947 0.88617206 -0.75999999
5.5097947 0.86617208 -0.75999999
5.5097947 0.84617209 -0.75999999
5.5097947 0.82617205 -0.75999999
5.5097947 0.80617207 -0.27005854
5.5097947 0.78617209 -0.2785058
5.5097947 0.76617205 -0.31792638
5.5097947 0.74617207 -0.33763665
5.5097947 0.72617209 -0.39958328
5.5097947 0.70617205 -0.4361881
5.5097947 0.68617207 -0.47279292
5.5097947 0.66617209 -0.52066076
5.5097947 0.64617205 -0.57134438
5.5097947 0.62617207 -0.75999999
5.5097947 0.60617208 -0.75999999
5.5097947 0.58617204 -0.75999999
5.5097947 0.56617206 -0.75999999
5.5097947 0.54617208 -0.75999999
5.5097947 0.52617204 -0.75999999
5.5097947 0.50617206 -0.75999999
5.5097947 0.48617208 -0.75999999
5.5097947 0.46617207 -0.75999999
5.5097947 0.44617206 -0.75999999
5.5097947 0.42617208 -0.75999999
5.5097947 0.40617207 -0.75999999
5.5097947 0.38617206 -0.75999999
5.5097947 0.36617208 -0.75999999
5.5097947 0.34617206 -0.75999999
5.5097947 0.32617205 -0.75999999
5.5097947 0.30617207 -0.75999999
5.5097947 0.28617206 -0.75999999
5.5097947 0.26617205 -0.75999999
5.5097947 0.24617207 -0.75999999
5.5097947 0.22617206 -0.75999999
5.5097947 0.20617206 -0.75999999
5.5097947 0.18617207 -0.75999999
5.5097947 0.16617207 -0.75999999
5.5097947 0.14617206 -0.75999999
5.5097947 0.12617207 -0.75999999
5.5097947 0.10617206 -0.75999999
5.5097947 0.086172067 -0.75999999
5.5097947 0.066172063 -0.75999999
5.5097947 0.046172068 -0.75999999
5.5097947 0.026172066 -0.75999999
5.5097947 0.0061720656 -0.75999999
5.5097947 -0.013827934 -0.75999999
5.5097947 -0.033827934 -0.75999999
5.5097947 -0.053827934 -0.75999999
5.5097947 -0.073827937 -0.75999999
5.5097947 -0.093827933 -0.75999999
5.5097947 -0.11382794 -0.75999999
5.5097947 -0.13382794 -0.75999999
5.5097947 -0.15382794 -0.75999999
5.5097947 -0.17382793 -0.75999999
5.5097947 -0.19382793 -0.75999999
5.5097947 -0.21382794 -0.75999999
5.5097947 -0.23382793 -0.75999999
5.5097947 -0.25382793 -0.75999999
5.5097947 -0.27382794 -0.75999999
5.5097947 -0.29382792 -0.75999999
5.5097947 -0.31382793 -0.75999999
5.5097947 -0.33382794 -0.75999999
5.5097947 -0.35382792 -0.75999999
5.5097947 -0.37382793 -0.75999999
5.5097947 -0.39382794 -0.75999999
5.5097947 -0.41382793 -0.75999999
5.5097947 -0.43382794 -0.75999999
5.5097947 -0.45382795 -0.75999999
5.5097947 -0.47382793 -0.75999999
5.5097947 -0.49382794 -0.75999999
5.5097947 -0.51382792 -0.75999999
5.5097947 -0.53382796 -0.75999999
5.5097947 -0.55382794 -0.75999999
5.5097947 -0.57382792 -0.75999999
5.5097947 -0.59382796 -0.75999999
5.5097947 -0.61382794 -0.75999999
5.5097947 -0.63382792 -0.75999999
5.5097947 -0.65382791 -0.75999999
5.5097947 -0.67382795 -0.75999999
5.4897947 4.9261723 -0.75999999
5.4897947 4.9061723 -0.75999999
5.4897947 4.8861723 -0.75999999
5.4897947 4.8661718 -0.75999999
5.4897947 4.8461719 -0.75999999
5.4897947 4.8261719 -0.75999999
5.4897947 4.8061719 -0.75999999
5.4897947 4.7861719 -0.75999999
5.4897947 4.7661719 -0.75999999
5.4897947 4.746172 -0.75999999
5.4897947 4.726172 -0.75999999
5.4897947 4.706172 -0.75999999
5.4897947 4.686172 -0.75999999
5.4897947 4.666172 -0.75999999
5.4897947 4.646172 -0.75999999
5.4897947 4.6261721 -0.75999999
5.4897947 4.6061721 -0.75999999
5.4897947 4.5861721 -0.75999999
5.4897947 4.5661721 -0.75999999
5.4897947 4.5461721 -0.75999999
5.4897947 4.5261722 -0.75999999
5.4897947 4.5061722 -0.75999999
5.4897947 4.4861722 -0.75999999
5.4897947 4.4661722 -0.75999999
5.4897947 4.4461722 -0.75999999
5.4897947 4.4261723 -0.75999999
5.4897947 4.4061723 -0.75999999
5.4897947 4.3861723 -0.75999999
5.4897947 4.3661718 -0.75999999
5.4897947 4.3461719 -0.75999999
5.4897947 4.3261719 -0.75999999
5.4897947 4.3061719 -0.75999999
5.4897947 4.2861719 -0.75999999
5.4897947 4.2661719 -0.75999999
5.4897947 4.246172 -0.75999999
5.4897947 4.226172 -0.75999999
5.4897947 4.206172 -0.75999999
5.4897947 4.186172 -0.75999999
5.4897947 4.166172 -0.75999999
5.4897947 4.146172 -0.75999999
5.4897947 4.1261721 -0.75999999
5.4897947 4.1061721 -0.75999999
5.4897947 4.0861721 -0.75999999
5.4897947 4.0661721 -0.75999999
5.4897947 4.0461721 -0.75999999
5.4897947 4.0261722 -0.75999999
5.4897947 4.0061722 -0.75999999
5.4897947 3.986172 -0.75999999
5.4897947 3.966172 -0.75999999
5.4897947 3.946172 -0.75999999
5.4897947 3.926172 -0.75999999
5.4897947 3.906172 -0.75999999
5.4897947 3.8861721 -0.75999999
5.4897947 3.8661721 -0.75999999
5.4897947 3.8461721 -0.75999999
5.4897947 3.8261721 -0.75999999
5.4897947 3.8061721 -0.75999999
5.4897947 3.7861722 -0.75999999
5.4897947 3.7661722 -0.75999999
5.4897947 3.746172 -0.75999999
5.4897947 3.726172 -0.75999999
5.4897947 3.706172 -0.75999999
5.4897947 3.686172 -0.75999999
5.4897947 3.666172 -0.75999999
5.4897947 3.646172 -0.75999999
5.4897947 3.6261721 -0.75999999
5.4897947 3.6061721 -0.75999999
5.4897947 3.5861721 -0.75999999
5.4897947 3.5661721 -0.75999999
5.4897947 3.5461721 -0.75999999
5.4897947 3.5261722 -0.75999999
5.4897947 3.5061722 -0.75999999
5.4897947 3.486172 -0.75999999
5.4897947 3.466172 -0.75999999
5.4897947 3.446172 -0.75999999
5.4897947 3.426172 -0.75999999
5.4897947 3.406172 -0.75999999
5.4897947 3.3861721 -0.75999999
5.4897947 3.3661721 -0.75999999
5.4897947 3.3461721 -0.75999999
5.4897947 3.3261721 -0.75999999
5.4897947 3.3061721 -0.75999999
5.4897947 3.2861722 -0.75999999
5.4897947 3.2661722 -0.75999999
5.4897947 3.246172 -0.75999999
5.4897947 3.226172 -0.75999999
5.4897947 3.206172 -0.75999999
5.4897947 3.186172 -0.75999999
5.4897947 3.166172 -0.75999999
5.4897947 3.146172 -0.75999999
5.4897947 3.1261721 -0.75999999
5.4897947 3.1061721 -0.75999999
5.4897947 3.0861721 -0.75999999
5.4897947 3.0661721 -0.75999999
5.4897947 3.0461721 -0.75999999
5.4897947 3.0261722 -0.75999999
5.4897947 3.0061722 -0.75999999
5.4897947 2.986172 -0.75999999
5.4897947 2.966172 -0.75999999
5.4897947 2.946172 -0.75999999
5.4897947 2.926172 -0.75999999
5.4897947 2.906172 -0.75999999
5.4897947 2.8861721 -0.75999999
5.4897947 2.8661721 -0.75999999
5.4897947 2.8461721 -0.75999999
5.4897947 2.8261721 -0.75999999
5.4897947 2.8061721 -0.75999999
5.4897947 2.7861722 -0.75999999
5.4897947 2.7661722 -0.75999999
5.4897947 2.746172 -0.75999999
5.4897947 2.726172 -0.75999999
5.4897947 2.706172 -0.75999999
5.4897947 2.686172 -0.75999999
5.4897947 2.666172 -0.75999999
5.4897947 2.646172 -0.75999999
5.4897947 2.6261721 -0.75999999
5.4897947 2.6061721 -0.75999999
5.4897947 2.5861721 -0.75999999
5.4897947 2.5661721 -0.75999999
5.4897947 2.5461721 -0.75999999
5.4897947 2.5261722 -0.75999999
5.4897947 2.5061722 -0.75999999
5.4897947 2.486172 -0.75999999
5.4897947 2.466172 -0.75999999
5.4897947 2.446172 -0.75999999
5.4897947 2.426172 -0.75999999
5.4897947 2.406172 -0.75999999
5.4897947 2.3861721 -0.75999999
5.4897947 2.3661721 -0.75999999
5.4897947 2.3461721 -0.75999999
5.4897947 2.3261721 -0.75999999
5.4897947 2.3061721 -0.75999999
5.4897947 2.2861722 -0.75999999
5.4897947 2.2661722 -0.75999999
5.4897947 2.246172 -0.75999999
5.4897947 2.226172 -0.75999999
5.4897947 2.206172 -0.75999999
5.4897947 2.186172 -0.75999999
5.4897947 2.166172 -0.75999999
5.4897947 2.146172 -0.75999999
5.4897947 2.1261721 -0.75999999
5.4897947 2.1061721 -0.75999999
5.4897947 2.0861721 -0.75999999
5.4897947 2.0661721 -0.75999999
5.4897947 2.0461721 -0.75999999
5.4897947 2.0261722 -0.75999999
5.4897947 2.0061722 -0.75999999
5.4897947 1.9861721 -0.75999999
5.4897947 1.9661721 -0.75999999
5.4897947 1.9461721 -0.75999999
5.4897947 1.926172 -0.75999999
5.4897947 1.906172 -0.75999999
5.4897947 1.8861721 -0.75999999
5.4897947 1.8661721 -0.75999999
5.4897947 1.8461721 -0.75999999
5.4897947 1.8261721 -0.75999999
5.4897947 1.806172 -0.75999999
5.4897947 1.786172 -0.75999999
5.4897947 1.7661721 -0.75999999
5.4897947 1.7461721 -0.75999999
5.4897947 1.7261721 -0.75999999
5.4897947 1.7061721 -0.75999999
5.4897947 1.686172 -0.75999999
5.4897947 1.666172 -0.75999999
5.4897947 1.646172 -0.75999999
5.4897947 1.6261721 -0.75999999
5.4897947 1.6061721 -0.75999999
5.4897947 1.5861721 -0.75999999
5.4897947 1.5661721 -0.75999999
5.4897947 1.546172 -0.75999999
5.4897947 1.526172 -0.75999999
5.4897947 1.5061721 -0.75999999
5.4897947 1.4861721 -0.75999999
5.4897947 1.4661721 -0.75999999
5.4897947 1.4461721 -0.75999999
5.4897947 1.426172 -0.75999999
5.4897947 1.406172 -0.75999999
5.4897947 1.3861721 -0.75999999
5.4897947 1.3661721 -0.75999999
5.4897947 1.3461721 -0.75999999
5.4897947 1.3261721 -0.34326816
5.4897947 1.306172 -0.3404524
5.4897947 1.286172 -0.35171545
5.4897947 1.2661721 -0.75999999
5.4897947 1.2461721 -0.75999999
5.4897947 1.2261721 -0.58260739
5.4897947 1.2061721 -0.44745114
5.4897947 1.186172 -0.75999999
5.4897947 1.166172 -0.75999999
5.4897947 1.146172 -0.75999999
5.4897947 1.1261721 -0.75999999
5.4897947 1.1061721 -0.26442701
5.4897947 1.0861721 -0.75999999
5.4897947 1.0661721 -0.75999999
5.4897947 1.046172 -0.75999999
5.4897947 1.026172 -0.51784503
5.4897947 1.0061721 -0.54881835
5.4897947 0.98617208 -0.54600257
5.4897947 0.96617204 -0.75999999
5.4897947 0.94617206 -0.75999999
5.4897947 0.92617208 -0.75999999
5.4897947 0.90617204 -0.75999999
5.4897947 0.88617206 -0.75999999
5.4897947 0.86617208 -0.75999999
5.4897947 0.84617209 -0.75999999
5.4897947 0.82617205 -0.20529616
5.4897947 0.80617207 -0.24190098
5.4897947 0.78617209 -0.31229487
5.4897947 0.76617205 -0.33763665
5.4897947 0.74617207 -0.37705722
5.4897947 0.72617209 -0.4502669
5.4897947 0.70617205 -0.46997717
5.4897947 0.68617207 -0.51502925
5.4897947 0.66617209 -0.54881835
5.4897947 0.64617205 -0.75999999
5.4897947 0.62617207 -0.75999999
5.4897947 0.60617208 -0.75999999
5.4897947 0.58617204 -0.75999999
5.4897947 0.56617206 -0.75999999
5.4897947 0.54617208 -0.75999999
5.4897947 0.52617204 -0.75999999
5.4897947 0.50617206 -0.75999999
5.4897947 0.48617208 -0.75999999
5.4897947 0.46617207 -0.75999999
5.4897947 0.44617206 -0.75999999
5.4897947 0.42617208 -0.75999999
5.4897947 0.40617207 -0.75999999
5.4897947 0.38617206 -0.75999999
5.4897947 0.36617208 -0.75999999
5.4897947 0.34617206 -0.75999999
5.4897947 0.32617205 -0.75999999
5.4897947 0.30617207 -0.75999999
5.4897947 0.28617206 -0.75999999
5.4897947 0.26617205 -0.75999999
5.4897947 0.24617207 -0.75999999
5.4897947 0.22617206 -0.75999999
5.4897947 0.20617206 -0.75999999
5.4897947 0.18617207 -0.75999999
5.4897947 0.16617207 -0.75999999
5.4897947 0.14617206 -0.75999999
5.4897947 0.12617207 -0.75999999
5.4897947 0.10617206 -0.75999999
5.4897947 0.086172067 -0.75999999
5.4897947 0.066172063 -0.75999999
5.4897947 0.046172068 -0.75999999
5.4897947 0.026172066 -0.75999999
5.4897947 0.0061720656 -0.75999999
5.4897947 -0.013827934 -0.75999999
5.4897947 -0.033827934 -0.75999999
5.4897947 -0.053827934 -0.75999999
5.4897947 -0.073827937 -0.75999999
5.4897947 -0.093827933 -0.75999999
5.4897947 -0.11382794 -0.75999999
5.4897947 -0.13382794 -0.75999999
5.4897947 -0.15382794 -0.75999999
5.4897947 -0.17382793 -0.75999999
5.4897947 -0.19382793 -0.75999999
5.4897947 -0.21382794 -0.75999999
5.4897947 -0.23382793 -0.75999999
5.4897947 -0.25382793 -0.75999999
5.4897947 -0.27382794 -0.75999999
5.4897947 -0.29382792 -0.75999999
5.4897947 -0.31382793 -0.75999999
5.4897947 -0.33382794 -0.75999999
5.4897947 -0.35382792 -0.75999999
5.4897947 -0.37382793 -0.75999999
5.4897947 -0.39382794 -0.75999999
5.4897947 -0.41382793 -0.75999999
5.4897947 -0.43382794 -0.75999999
5.4897947 -0.45382795 -0.75999999
5.4897947 -0.47382793 -0.75999999
5.4897947 -0.49382794 -0.75999999
5.4897947 -0.51382792 -0.75999999
5.4897947 -0.53382796 -0.75999999
5.4897947 -0.55382794 -0.75999999
5.4897947 -0.57382792 -0.75999999
5.4897947 -0.59382796 -0.75999999
5.4897947 -0.61382794 -0.75999999
5.4897947 -0.63382792 -0.75999999
5.4897947 -0.65382791 -0.75999999
5.4897947 -0.67382795 -0.75999999
5.4697948 4.9261723 -0.75999999
5.4697948 4.9061723 -0.75999999
5.4697948 4.8861723 -0.75999999
5.4697948 4.8661718 -0.75999999
5.4697948 4.8461719 -0.75999999
5.4697948 4.8261719 -0.75999999
5.4697948 4.8061719 -0.75999999
5.4697948 4.7861719 -0.75999999
5.4697948 4.7661719 -0.75999999
5.4697948 4.746172 -0.75999999
5.4697948 4.726172 -0.75999999
5.4697948 4.706172 -0.75999999
5.4697948 4.686172 -0.75999999
5.4697948 4.666172 -0.75999999
5.4697948 4.646172 -0.75999999
5.4697948 4.6261721 -0.75999999
5.4697948 4.6061721 -0.75999999
5.4697948 4.5861721 -0.75999999
5.4697948 4.5661721 -0.75999999
5.4697948 4.5461721 -0.75999999
5.4697948 4.5261722 -0.75999999
5.4697948 4.5061722 -0.75999999
5.4697948 4.4861722 -0.75999999
5.4697948 4.4661722 -0.75999999
5.4697948 4.4461722 -0.75999999
5.4697948 4.4261723 -0.75999999
5.4697948 4.4061723 -0.75999999
5.4697948 4.3861723 -0.75999999
5.4697948 4.3661718 -0.75999999
5.4697948 4.3461719 -0.75999999
5.4697948 4.3261719 -0.75999999
5.4697948 4.3061719 -0.75999999
5.4697948 4.2861719 -0.75999999
5.4697948 4.2661719 -0.75999999
5.4697948 4.246172 -0.75999999
5.4697948 4.226172 -0.75999999
5.4697948 4.206172 -0.75999999
5.4697948 4.186172 -0.75999999
5.4697948 4.166172 -0.75999999
5.4697948 4.146172 -0.75999999
5.4697948 4.1261721 -0.75999999
5.4697948 4.1061721 -0.75999999
5.4697948 4.0861721 -0.75999999
5.4697948 4.0661721 -0.75999999
5.4697948 4.0461721 -0.75999999
5.4697948 4.0261722 -0.75999999
5.4697948 4.0061722 -0.75999999
5.4697948 3.986172 -0.75999999
5.4697948 3.966172 -0.75999999
5.4697948 3.946172 -0.75999999
5.4697948 3.926172 -0.75999999
5.4697948 3.906172 -0.75999999
5.4697948 3.8861721 -0.75999999
5.4697948 3.8661721 -0.75999999
5.4697948 3.8461721 -0.75999999
5.4697948 3.8261721 -0.75999999
5.4697948 3.8061721 -0.75999999
5.4697948 3.7861722 -0.75999999
5.4697948 3.7661722 -0.75999999
5.4697948 3.746172 -0.75999999
5.4697948 3.726172 -0.75999999
5.4697948 3.706172 -0.75999999
5.4697948 3.686172 -0.75999999
5.4697948 3.666172 -0.75999999
5.4697948 3.646172 -0.75999999
5.4697948 3.6261721 -0.75999999
5.4697948 3.6061721 -0.75999999
5.4697948 3.5861721 -0.75999999
5.4697948 3.5661721 -0.75999999
5.4697948 3.5461721 -0.75999999
5.4697948 3.5261722 -0.75999999
5.4697948 3.5061722 -0.75999999
5.4697948 3.486172 -0.75999999
5.4697948 3.466172 -0.75999999
5.4697948 3.446172 -0.75999999
5.4697948 3.426172 -0.75999999
5.4697948 3.406172 -0.75999999
5.4697948 3.3861721 -0.75999999
5.4697948 3.3661721 -0.75999999
5.4697948 3.3461721 -0.75999999
5.4697948 3.3261721 -0.75999999
5.4697948 3.3061721 -0.75999999
5.4697948 3.2861722 -0.75999999
5.4697948 3.2661722 -0.75999999
5.4697948 3.246172 -0.75999999
5.4697948 3.226172 -0.75999999
5.4697948 3.206172 -0.75999999
5.4697948 3.186172 -0.75999999
5.4697948 3.166172 -0.75999999
5.4697948 3.146172 -0.75999999
5.4697948 3.1261721 -0.75999999
5.4697948 3.1061721 -0.75999999
5.4697948 3.0861721 -0.75999999
5.4697948 3.0661721 -0.75999999
5.4697948 3.0461721 -0.75999999
5.4697948 3.0261722 -0.75999999
5.4697948 3.0061722 -0.75999999
5.4697948 2.986172 -0.75999999
5.4697948 2.966172 -0.75999999
5.4697948 2.946172 -0.75999999
5.4697948 2.926172 -0.75999999
5.4697948 2.906172 -0.75999999
5.4697948 2.8861721 -0.75999999
5.4697948 2.8661721 -0.75999999
5.4697948 2.8461721 -0.75999999
5.4697948 2.8261721 -0.75999999
5.4697948 2.8061721 -0.75999999
5.4697948 2.7861722 -0.75999999
5.4697948 2.7661722 -0.75999999
5.4697948 2.746172 -0.75999999
5.4697948 2.726172 -0.75999999
5.4697948 2.706172 -0.75999999
5.4697948 2.686172 -0.75999999
5.4697948 2.666172 -0.75999999
5.4697948 2.646172 -0.75999999
5.4697948 2.6261721 -0.75999999
5.4697948 2.6061721 -0.75999999
5.4697948 2.5861721 -0.75999999
5.4697948 2.5661721 -0.75999999
5.4697948 2.5461721 -0.75999999
5.4697948 2.5261722 -0.75999999
5.4697948 2.5061722 -0.75999999
5.4697948 2.486172 -0.75999999
5.4697948 2.466172 -0.75999999
5.4697948 2.446172 -0.75999999
5.4697948 2.426172 -0.75999999
5.4697948 2.406172 -0.75999999
5.4697948 2.3861721 -0.75999999
5.4697948 2.3661721 -0.75999999
5.4697948 2.3461721 -0.75999999
5.4697948 2.3261721 -0.75999999
5.4697948 2.3061721 -0.75999999
5.4697948 2.2861722 -0.75999999
5.4697948 2.2661722 -0.75999999
5.4697948 2.246172 -0.75999999
5.4697948 2.226172 -0.75999999
5.4697948 2.206172 -0.75999999
5.4697948 2.186172 -0.75999999
5.4697948 2.166172 -0.75999999
5.4697948 2.146172 -0.75999999
5.4697948 2.1261721 -0.75999999
5.4697948 2.1061721 -0.75999999
5.4697948 2.0861721 -0.75999999
5.4697948 2.0661721 -0.75999999
5.4697948 2.0461721 -0.75999999
5.4697948 2.0261722 -0.75999999
5.4697948 2.0061722 -0.75999999
5.4697948 1.9861721 -0.75999999
5.4697948 1.9661721 -0.75999999
5.4697948 1.9461721 -0.75999999
5.4697948 1.926172 -0.75999999
5.4697948 1.906172 -0.75999999
5.4697948 1.8861721 -0.75999999
5.4697948 1.8661721 -0.75999999
5.4697948 1.8461721 -0.75999999
5.4697948 1.8261721 -0.75999999
5.4697948 1.806172 -0.75999999
5.4697948 1.786172 -0.75999999
5.4697948 1.7661721 -0.75999999
5.4697948 1.7461721 -0.75999999
5.4697948 1.7261721 -0.75999999
5.4697948 1.7061721 -0.75999999
5.4697948 1.686172 -0.75999999
5.4697948 1.666172 -0.75999999
5.4697948 1.646172 -0.75999999
5.4697948 1.6261721 -0.75999999
5.4697948 1.6061721 -0.75999999
5.4697948 1.5861721 -0.75999999
5.4697948 1.5661721 -0.75999999
5.4697948 1.546172 -0.75999999
5.4697948 1.526172 -0.75999999
5.4697948 1.5061721 -0.75999999
5.4697948 1.4861721 -0.75999999
5.4697948 1.4661721 -0.75999999
5.4697948 1.4461721 -0.75999999
5.4697948 1.426172 -0.75999999
5.4697948 1.406172 -0.75999999
5.4697948 1.3861721 -0.31511062
5.4697948 1.3661721 -0.75999999
5.4697948 1.3461721 -0.75999999
5.4697948 1.3261721 -0.75999999
5.4697948 1.306172 -0.34326816
5.4697948 1.286172 -0.75999999
5.4697948 1.2661721 -0.75999999
5.4697948 1.2461721 -0.75999999
5.4697948 1.2261721 -0.43337235
5.4697948 1.2061721 -0.59105468
5.4697948 1.186172 -0.75999999
5.4697948 1.166172 -0.28413731
5.4697948 1.146172 -0.27569005
5.4697948 1.1261721 -0.75999999
5.4697948 1.1061721 -0.23345369
5.4697948 1.0861721 -0.75999999
5.4697948 1.0661721 -0.75999999
5.4697948 1.046172 -0.59950191
5.4697948 1.026172 -0.52910805
5.4697948 1.0061721 -0.55726558
5.4697948 0.98617208 -0.75999999
5.4697948 0.96617204 -0.75999999
5.4697948 0.94617206 -0.75999999
5.4697948 0.92617208 -0.75999999
5.4697948 0.90617204 -0.75999999
5.4697948 0.88617206 -0.75999999
5.4697948 0.86617208 -0.75999999
5.4697948 0.84617209 -0.23063797
5.4697948 0.82617205 -0.34608391
5.4697948 0.80617207 -0.27005854
5.4697948 0.78617209 -0.3404524
5.4697948 0.76617205 -0.39958328
5.4697948 0.74617207 -0.4361881
5.4697948 0.72617209 -0.44181961
5.4697948 0.70617205 -0.53192377
5.4697948 0.68617207 -0.54318678
5.4697948 0.66617209 -0.57979167
5.4697948 0.64617205 -0.75999999
5.4697948 0.62617207 -0.75999999
5.4697948 0.60617208 -0.75999999
5.4697948 0.58617204 -0.75999999
5.4697948 0.56617206 -0.75999999
5.4697948 0.54617208 -0.75999999
5.4697948 0.52617204 -0.75999999
5.4697948 0.50617206 -0.75999999
5.4697948 0.48617208 -0.75999999
5.4697948 0.46617207 -0.75999999
5.4697948 0.44617206 -0.75999999
5.4697948 0.42617208 -0.75999999
5.4697948 0.40617207 -0.75999999
5.4697948 0.38617206 -0.75999999
5.4697948 0.36617208 -0.75999999
5.4697948 0.34617206 -0.75999999
5.4697948 0.32617205 -0.75999999
5.4697948 0.30617207 -0.75999999
5.4697948 0.28617206 -0.75999999
5.4697948 0.26617205 -0.75999999
5.4697948 0.24617207 -0.75999999
5.4697948 0.22617206 -0.75999999
5.4697948 0.20617206 -0.75999999
5.4697948 0.18617207 -0.75999999
5.4697948 0.16617207 -0.75999999
5.4697948 0.14617206 -0.75999999
5.4697948 0.12617207 -0.75999999
5.4697948 0.10617206 -0.75999999
5.4697948 0.086172067 -0.75999999
5.4697948 0.066172063 -0.75999999
5.4697948 0.046172068 -0.75999999
5.4697948 0.026172066 -0.75999999
5.4697948 0.0061720656 -0.75999999
5.4697948 -0.013827934 -0.75999999
5.4697948 -0.033827934 -0.75999999
5.4697948 -0.053827934 -0.75999999
5.4697948 -0.073827937 -0.75999999
5.4697948 -0.093827933 -0.75999999
5.4697948 -0.11382794 -0.75999999
5.4697948 -0.13382794 -0.75999999
5.4697948 -0.15382794 -0.75999999
5.4697948 -0.17382793 -0.75999999
5.4697948 -0.19382793 -0.75999999
5.4697948 -0.21382794 -0.75999999
5.4697948 -0.23382793 -0.75999999
5.4697948 -0.25382793 -0.75999999
5.4697948 -0.27382794 -0.75999999
5.4697948 -0.29382792 -0.75999999
5.4697948 -0.31382793 -0.75999999
5.4697948 -0.33382794 -0.75999999
5.4697948 -0.35382792 -0.75999999
5.4697948 -0.37382793 -0.75999999
5.4697948 -0.39382794 -0.75999999
5.4697948 -0.41382793 -0.75999999
5.4697948 -0.43382794 -0.75999999
5.4697948 -0.45382795 -0.75999999
5.4697948 -0.47382793 -0.75999999
5.4697948 -0.49382794 -0.75999999
5.4697948 -0.51382792 -0.75999999
5.4697948 -0.53382796 -0.75999999
5.4697948 -0.55382794 -0.75999999
5.4697948 -0.57382792 -0.75999999
5.4697948 -0.59382796 -0.75999999
5.4697948 -0.61382794 -0.75999999
5.4697948 -0.63382792 -0.75999999
5.4697948 -0.65382791 -0.75999999
5.4697948 -0.67382795 -0.75999999
5.4497948 4.9261723 -0.75999999
5.4497948 4.9061723 -0.75999999
5.4497948 4.8861723 -0.75999999
5.4497948 4.8661718 -0.75999999
5.4497948 4.8461719 -0.75999999
5.4497948 4.8261719 -0.75999999
5.4497948 4.8061719 -0.75999999
5.4497948 4.7861719 -0.75999999
5.4497948 4.7661719 -0.75999999
5.4497948 4.746172 -0.75999999
5.4497948 4.726172 -0.75999999
5.4497948 4.706172 -0.75999999
5.4497948 4.686172 -0.75999999
5.4497948 4.666172 -0.75999999
5.4497948 4.646172 -0.75999999
5.4497948 4.6261721 -0.75999999
5.4497948 4.6061721 -0.75999999
5.4497948 4.5861721 -0.75999999
5.4497948 4.5661721 -0.75999999
5.4497948 4.5461721 -0.75999999
5.4497948 4.5261722 -0.75999999
5.4497948 4.5061722 -0.75999999
5.4497948 4.4861722 -0.75999999
5.4497948 4.4661722 -0.75999999
5.4497948 4.4461722 -0.75999999
5.4497948 4.4261723 -0.75999999
5.4497948 4.4061723 -0.75999999
5.4497948 4.3861723 -0.75999999
5.4497948 4.3661718 -0.75999999
5.4497948 4.3461719 -0.75999999
5.4497948 4.3261719 -0.75999999
5.4497948 4.3061719 -0.75999999
5.4497948 4.2861719 -0.75999999
5.4497948 4.2661719 -0.75999999
5.4497948 4.246172 -0.75999999
5.4497948 4.226172 -0.75999999
5.4497948 4.206172 -0.75999999
5.4497948 4.186172 -0.75999999
5.4497948 4.166172 -0.75999999
5.4497948 4.146172 -0.75999999
5.4497948 4.1261721 -0.75999999
5.4497948 4.1061721 -0.75999999
5.4497948 4.0861721 -0.75999999
5.4497948 4.0661721 -0.75999999
5.4497948 4.0461721 -0.75999999
5.4497948 4.0261722 -0.75999999
5.4497948 4.0061722 -0.75999999
5.4497948 3.986172 -0.75999999
5.4497948 3.966172 -0.75999999
5.4497948 3.946172 -0.75999999
5.4497948 3.926172 -0.75999999
5.4497948 3.906172 -0.75999999
5.4497948 3.8861721 -0.75999999
5.4497948 3.8661721 -0.75999999
5.4497948 3.8461721 -0.75999999
5.4497948 3.8261721 -0.75999999
5.4497948 3.8061721 -0.75999999
5.4497948 3.7861722 -0.75999999
5.4497948 3.7661722 -0.75999999
5.4497948 3.746172 -0.75999999
5.4497948 3.726172 -0.75999999
5.4497948 3.706172 -0.75999999
5.4497948 3.686172 -0.75999999
5.4497948 3.666172 -0.75999999
5.4497948 3.646172 -0.75999999
5.4497948 3.6261721 -0.75999999
5.4497948 3.6061721 -0.75999999
5.4497948 3.5861721 -0.75999999
5.4497948 3.5661721 -0.75999999
5.4497948 3.5461721 -0.75999999
5.4497948 3.5261722 -0.75999999
5.4497948 3.5061722 -0.75999999
5.4497948 3.486172 -0.75999999
5.4497948 3.466172 -0.75999999
5.4497948 3.446172 -0.75999999
5.4497948 3.426172 -0.75999999
5.4497948 3.406172 -0.75999999
5.4497948 3.3861721 -0.75999999
5.4497948 3.3661721 -0.75999999
5.4497948 3.3461721 -0.75999999
5.4497948 3.3261721 -0.75999999
5.4497948 3.3061721 -0.75999999
5.4497948 3.2861722 -0.75999999
5.4497948 3.2661722 -0.75999999
5.4497948 3.246172 -0.75999999
5.4497948 3.226172 -0.75999999
5.4497948 3.206172 -0.75999999
5.4497948 3.186172 -0.75999999
5.4497948 3.166172 -0.75999999
5.4497948 3.146172 -0.75999999
5.4497948 3.1261721 -0.75999999
5.4497948 3.1061721 -0.75999999
5.4497948 3.0861721 -0.75999999
5.4497948 3.0661721 -0.75999999
5.4497948 3.0461721 -0.75999999
5.4497948 3.0261722 -0.75999999
5.4497948 3.0061722 -0.75999999
5.4497948 2.986172 -0.75999999
5.4497948 2.966172 -0.75999999
5.4497948 2.946172 -0.75999999
5.4497948 2.926172 -0.75999999
5.4497948 2.906172 -0.75999999
5.4497948 2.8861721 -0.75999999
5.4497948 2.8661721 -0.75999999
5.4497948 2.8461721 -0.75999999
5.4497948 2.8261721 -0.75999999
5.4497948 2.8061721 -0.75999999
5.4497948 2.7861722 -0.75999999
5.4497948 2.7661722 -0.75999999
5.4497948 2.746172 -0.75999999
5.4497948 2.726172 -0.75999999
5.4497948 2.706172 -0.75999999
5.4497948 2.686172 -0.75999999
5.4497948 2.666172 -0.75999999
5.4497948 2.646172 -0.75999999
5.4497948 2.6261721 -0.75999999
5.4497948 2.6061721 -0.75999999
5.4497948 2.5861721 -0.75999999
5.4497948 2.5661721 -0.75999999
5.4497948 2.5461721 -0.75999999
5.4497948 2.5261722 -0.75999999
5.4497948 2.5061722 -0.75999999
5.4497948 2.486172 -0.75999999
5.4497948 2.466172 -0.75999999
5.4497948 2.446172 -0.75999999
5.4497948 2.426172 -0.75999999
5.4497948 2.406172 -0.75999999
5.4497948 2.3861721 -0.75999999
5.4497948 2.3661721 -0.75999999
5.4497948 2.3461721 -0.75999999
5.4497948 2.3261721 -0.75999999
5.4497948 2.3061721 -0.75999999
5.4497948 2.2861722 -0.75999999
5.4497948 2.2661722 -0.75999999
5.4497948 2.246172 -0.75999999
5.4497948 2.226172 -0.75999999
5.4497948 2.206172 -0.75999999
5.4497948 2.186172 -0.75999999
5.4497948 2.166172 -0.75999999
5.4497948 2.146172 -0.75999999
5.4497948 2.1261721 -0.75999999
5.4497948 2.1061721 -0.75999999
5.4497948 2.0861721 -0.75999999
5.4497948 2.0661721 -0.75999999
5.4497948 2.0461721 -0.75999999
5.4497948 2.0261722 -0.75999999
5.4497948 2.0061722 -0.75999999
5.4497948 1.9861721 -0.75999999
5.4497948 1.9661721 -0.75999999
5.4497948 1.9461721 -0.75999999
5.4497948 1.926172 -0.75999999
5.4497948 1.906172 -0.75999999
5.4497948 1.8861721 -0.75999999
5.4497948 1.8661721 -0.75999999
5.4497948 1.8461721 -0.75999999
5.4497948 1.8261721 -0.75999999
5.4497948 1.806172 -0.75999999
5.4497948 1.786172 -0.75999999
5.4497948 1.7661721 -0.75999999
5.4497948 1.7461721 -0.75999999
5.4497948 1.7261721 -0.75999999
5.4497948 1.7061721 -0.75999999
5.4497948 1.686172 -0.75999999
5.4497948 1.666172 -0.75999999
5.4497948 1.646172 -0.75999999
5.4497948 1.6261721 -0.75999999
5.4497948 1.6061721 -0.75999999
5.4497948 1.5861721 -0.75999999
5.4497948 1.5661721 -0.75999999
5.4497948 1.546172 -0.75999999
5.4497948 1.526172 -0.75999999
5.4497948 1.5061721 -0.75999999
5.4497948 1.4861721 -0.75999999
5.4497948 1.4661721 -0.75999999
5.4497948 1.4461721 -0.75999999
5.4497948 1.426172 -0.75999999
5.4497948 1.406172 -0.75999999
5.4497948 1.3861721 -0.75999999
5.4497948 1.3661721 -0.31229487
5.4497948 1.3461721 -0.75999999
5.4497948 1.3261721 -0.75999999
5.4497948 1.306172 -0.75999999
5.4497948 1.286172 -0.75999999
5.4497948 1.2661721 -0.75999999
5.4497948 1.2461721 -0.75999999
5.4497948 1.2261721 -0.55444986
5.4497948 1.2061721 -0.57697588
5.4497948 1.186172 -0.75999999
5.4497948 1.166172 -0.75999999
5.4497948 1.146172 -0.75999999
5.4497948 1.1261721 -0.2447167
5.4497948 1.1061721 -0.3545312
5.4497948 1.0861721 -0.25597978
5.4497948 1.0661721 -0.75999999
5.4497948 1.046172 -0.75999999
5.4497948 1.026172 -0.51221347
5.4497948 1.0061721 -0.57697588
5.4497948 0.98617208 -0.56008136
5.4497948 0.96617204 -0.75999999
5.4497948 0.94617206 -0.75999999
5.4497948 0.92617208 -0.75999999
5.4497948 0.90617204 -0.75999999
5.4497948 0.88617206 -0.75999999
5.4497948 0.86617208 -0.21374345
5.4497948 0.84617209 -0.2390852
5.4497948 0.82617205 -0.32355788
5.4497948 0.80617207 -0.34608391
5.4497948 0.78617209 -0.37142572
5.4497948 0.76617205 -0.43900385
5.4497948 0.74617207 -0.46152991
5.4497948 0.72617209 -0.50376624
5.4497948 0.70617205 -0.54881835
5.4497948 0.68617207 -0.5741601
5.4497948 0.66617209 -0.75999999
5.4497948 0.64617205 -0.75999999
5.4497948 0.62617207 -0.75999999
5.4497948 0.60617208 -0.75999999
5.4497948 0.58617204 -0.75999999
5.4497948 0.56617206 -0.75999999
5.4497948 0.54617208 -0.75999999
5.4497948 0.52617204 -0.75999999
5.4497948 0.50617206 -0.75999999
5.4497948 0.48617208 -0.75999999
5.4497948 0.46617207 -0.75999999
5.4497948 0.44617206 -0.75999999
5.4497948 0.42617208 -0.75999999
5.4497948 0.40617207 -0.75999999
5.4497948 0.38617206 -0.75999999
5.4497948 0.36617208 -0.75999999
5.4497948 0.34617206 -0.75999999
5.4497948 0.32617205 -0.75999999
5.4497948 0.30617207 -0.75999999
5.4497948 0.28617206 -0.75999999
5.4497948 0.26617205 -0.75999999
5.4497948 0.24617207 -0.75999999
5.4497948 0.22617206 -0.75999999
5.4497948 0.20617206 -0.75999999
